ply
format ascii 1.0
comment Created by Open3D
element vertex 1322
property double x
property double y
property double z
property uchar red
property uchar green
property uchar blue
end_header
510.836 596.428 -1188.17 84 120 118
92.4839 205.566 -1194.06 50 100 122
102.248 204.667 -1194.91 51 99 122
381.805 -18.3568 -1113.27 111 119 116
1016.67 -0.556698 -1180.84 35 81 107
676.909 -45.9172 -1077.58 126 130 124
117.349 204.47 -1195.25 47 99 118
137.149 204.467 -1196.37 50 99 119
276.375 214.168 -1161 140 145 138
1016.51 439.206 -1174.41 14 81 114
817.371 139.347 -1076.92 124 129 124
398.292 218.217 -1099.12 129 152 156
1026.85 274.895 -1176.38 20 86 114
183.157 -10.4302 -1189.14 22 85 108
987.291 461.289 -1185.44 112 138 121
541.677 214.362 -1145.38 135 134 126
623.456 80.7716 -1149.49 101 117 116
1114.26 536.139 -1183.52 119 137 133
-11.8551 184.515 -1196.33 34 99 128
556.667 209.685 -1135.46 131 130 122
823.364 162.54 -1098.1 118 124 124
977.572 281.744 -1184.92 13 85 111
376.789 394.499 -1169.45 135 141 136
682.638 217.861 -1084.92 134 151 151
1099.53 648.983 -1177.86 119 137 131
996.444 224.316 -1181.02 12 73 106
391.809 637.129 -1192.04 120 155 149
817.175 214.861 -1155.22 108 129 135
722.21 635.603 -1189 112 138 136
281.29 56.8803 -1147.44 106 125 126
1071.65 552.221 -1184.35 11 83 102
1106.93 198.933 -1183.74 108 123 120
146.824 204.372 -1194.63 48 99 119
406.668 -165.49 -1186.87 32 66 86
369.134 141.122 -1162.53 116 120 113
586.743 109.726 -1115.2 127 150 157
176.66 206.879 -1192.26 27 82 103
356.631 89.5736 -1178.79 125 128 124
765.994 101.87 -1101.06 134 150 148
1041.71 285.469 -1177.91 14 86 113
701.815 -55.9679 -1081.89 129 147 154
226.503 204.776 -1182.11 141 144 138
931.845 84.4365 -1181.49 18 77 101
232.85 206.94 -1177.56 139 148 147
263.087 206.996 -1165.23 136 148 144
556.651 109.196 -1086.01 116 145 152
564.3 266.439 -1127.92 120 145 133
371.824 364.88 -1163.67 146 144 133
186.094 466.452 -1175.72 35 99 114
982.42 369.08 -1177.74 22 78 108
567.38 209.67 -1130.25 135 135 129
598.75 214.652 -1111.85 137 140 134
240.934 70.1293 -1077.38 124 139 139
952.28 144.886 -1182.01 117 126 120
626.818 329.982 -1119.18 118 130 125
530.769 439.634 -1076.59 123 138 143
941.844 434.507 -1185.15 20 74 104
573.031 189.804 -1124.78 122 128 119
426.499 415.27 -1129.39 128 137 128
1037.29 104.379 -1179.52 122 133 128
237.063 -165.663 -1191.5 119 121 115
998.858 101.247 -1177.9 10 85 106
772.08 213.612 -1131.14 125 146 153
691.548 -134.627 -1182.22 126 133 129
792.754 213.471 -1144.42 101 137 140
180.711 -55.3381 -1175.06 39 88 113
998.638 176.168 -1177.19 116 139 140
803.162 210.262 -1144.74 109 134 141
812.543 213.874 -1151.67 114 134 143
632.357 11.3448 -1122.81 121 132 128
66.8565 89.5523 -1202.03 49 103 127
563.395 466.989 -1112.01 116 126 124
517.38 -177.502 -1182.94 22 67 91
872.066 211.701 -1181.63 15 77 100
186.852 199.292 -1191.51 46 95 115
337.54 621.13 -1195.79 122 144 133
896.751 214.466 -1179.63 24 78 106
78.3808 502.031 -1198.73 37 95 125
157.269 160.275 -1189.29 42 90 107
552.27 14.5317 -1126.74 122 131 129
918.071 209.953 -1182.28 28 78 104
937.264 209.834 -1181.99 31 78 105
1113.43 81.9996 -1179.45 111 133 130
715.731 -54.8975 -1087.75 122 136 136
428.85 286.956 -1122.2 104 139 133
952.644 213.071 -1177.89 21 80 109
697.299 37.4701 -1138.2 120 120 110
846.277 312.653 -1153.02 115 152 153
1092.42 445.058 -1182.17 34 92 118
972.01 214.087 -1180.28 21 74 102
547.852 39.0791 -1108.92 129 146 146
631.953 484.531 -1126.72 116 125 135
91.6213 -78.381 -1199.02 59 122 148
706.429 113.538 -1154.35 137 142 137
1002.33 212.041 -1177.82 18 82 106
322.747 133.418 -1160.34 106 113 111
853.144 -14.0754 -1147.04 136 165 173
287.716 652.493 -1192.65 137 157 144
-7.88264 46.69 -1204.14 34 103 130
631.978 49.982 -1139.99 112 120 118
391.943 404.799 -1159.95 145 143 135
852.376 -20.8521 -1156.12 131 149 152
43.2056 201.399 -1193.98 32 92 119
1068.58 546.445 -1180.26 119 137 131
522.704 636.905 -1191.31 52 79 87
1098.76 636.557 -1188.21 119 137 131
36.9955 -0.995685 -1196.88 51 104 130
793.802 616.548 -1183.82 114 157 165
361.826 210.943 -1086.93 126 138 137
408.197 336.498 -1132.97 119 139 124
1012.62 486.563 -1184.26 107 131 117
826.83 -160.618 -1179.34 22 82 111
366.835 209.738 -1091.22 126 142 142
470.147 -44.6314 -1152.44 117 136 142
1133.64 347.012 -1177.57 131 156 160
167.203 172.806 -1192.9 49 92 110
261.668 -100.266 -1162.31 119 123 118
888.406 580.585 -1182.74 20 86 106
61.9633 474.403 -1196.32 58 110 141
636.88 208.442 -1099.11 132 141 139
487.486 277.945 -1153.89 105 109 104
676.863 214.498 -1085.99 131 142 140
572.64 -41.0104 -1145.2 133 142 139
711.67 210.087 -1100.99 133 148 152
1102.49 42.4686 -1181.25 139 155 151
792.321 80.3933 -1076.2 139 145 146
1097.44 419.407 -1182 39 96 121
952.7 210.551 -1181.76 54 91 110
336.646 139.206 -1161.73 102 108 103
831.975 631.892 -1185.83 99 137 139
488.423 330.452 -1117.1 124 127 123
175.63 199.776 -1192.63 41 88 109
91.789 -91.2455 -1196.83 53 114 143
473.392 200.332 -1134.32 111 123 118
263.495 39.1873 -1138.73 107 140 143
86.4859 189.762 -1195.52 54 102 125
992.464 91.4584 -1181.72 19 85 111
736.56 79.5676 -1134.78 140 143 139
266.691 205.933 -1161.76 132 143 138
922.358 144.894 -1183.78 19 76 101
324.204 208.299 -1101.6 136 147 143
917.314 -91.0252 -1179.92 33 93 120
333.283 208.649 -1095.58 136 149 146
529.081 370.637 -1078.74 109 154 152
56.3779 -71.2473 -1197.34 52 107 133
76.9479 129.326 -1196.55 46 98 121
316.483 219.052 -1116.18 138 139 133
546.811 611.354 -1191.47 16 68 84
416.183 208.584 -1112.33 118 136 138
421.437 205.132 -1112.18 119 136 138
777.281 169.616 -1116.12 127 133 131
451.248 205.379 -1127.45 111 127 125
3.17448 385.579 -1197.28 40 106 134
456.39 205.806 -1127.95 112 130 128
91.9081 -73.5403 -1198.23 33 98 123
312.488 653.43 -1192.95 130 151 138
461.046 204.817 -1132.51 113 123 121
472.52 204.298 -1136.03 112 121 118
102.047 -7.94564 -1200.05 36 113 134
487.577 204.675 -1140.21 107 113 107
782.93 -41.0714 -1131.87 134 155 166
550.399 209.244 -1138.84 128 126 120
551.859 204.801 -1136.17 134 135 126
266.073 509.596 -1148.89 133 146 148
845.22 537.319 -1166.95 120 139 139
97.14 -96.1491 -1196.94 53 106 132
97.8268 -88.0752 -1198.68 60 123 149
678.082 214.58 -1090 136 156 157
162.095 304.487 -1196.09 47 94 113
1042.38 484.749 -1190.03 14 81 114
837.961 210.786 -1159.78 110 122 120
308.146 113.84 -1164.1 103 116 114
561.802 199.748 -1130.03 128 126 119
162.353 -135.564 -1194.53 54 99 123
166.878 210.036 -1195.25 49 97 117
294.019 209.127 -1141.01 129 144 139
546.695 24.1578 -1119.58 122 134 133
252.653 199.393 -1170.74 132 135 130
796.493 -110.474 -1181.71 29 80 108
1107.96 139.067 -1177.14 97 124 125
330.945 208.714 -1105.63 136 141 136
357.277 624.102 -1194.11 116 146 140
178.51 351.851 -1084.89 61 104 125
1062.89 594.42 -1186 97 126 125
632.813 -39.1827 -1107.63 133 138 133
947.519 169.563 -1181.22 39 97 118
1007.77 602.85 -1180.26 70 112 118
487.999 184.126 -1127.49 113 121 115
326.697 124.121 -1169.43 94 102 98
758.127 209.232 -1124.56 124 144 149
383.989 61.3827 -1167.74 132 145 142
203.101 179.204 -1176.78 56 95 115
41.4274 350.027 -1199.5 58 112 133
808.076 204.802 -1144.46 103 136 142
56.8864 19.4522 -1194.66 48 101 129
11.7417 344.496 -1196.18 68 117 140
818.021 208.09 -1154.66 89 110 112
1107.06 129.431 -1184.83 128 128 119
842.581 207.118 -1165.7 109 122 117
906.643 209.46 -1179.99 28 79 106
887.214 -12.9743 -1183.1 20 70 94
1103.2 599.802 -1184.08 119 137 131
921.699 205.613 -1182.86 21 80 106
685.214 329.599 -1128.67 126 127 118
941.762 204.951 -1181.46 37 82 106
1032.1 158.904 -1182.09 99 124 127
816.131 22.0554 -1113.65 136 145 147
922.292 -36.6884 -1179.44 60 104 126
967.782 206.251 -1182.36 20 76 104
1006.95 207.179 -1177.86 15 83 106
400.325 -52.3262 -1092.39 118 135 138
1022.57 204.109 -1181.49 23 76 102
52.4653 194.258 -1196.45 51 104 130
271.963 656.839 -1195.68 135 156 141
992.101 379.683 -1176.57 23 78 106
77.5277 196.449 -1192.14 41 106 133
82.3875 196.053 -1192.4 46 104 129
566.413 -45.0002 -1150.73 134 142 140
996.746 99.7172 -1181.03 123 134 132
17.9217 -92.6043 -1202.45 67 132 159
253.718 15.0763 -1138.7 105 138 142
1052.03 99.1013 -1180.01 129 137 135
362.544 -18.0755 -1109.3 117 126 125
1117.96 576.546 -1177.64 119 137 131
836.803 78.9277 -1054.46 130 136 131
162.184 199.348 -1192.15 47 97 115
966.86 -40.5215 -1179.6 31 88 115
232.215 564.037 -1189.32 30 101 120
351.996 204.132 -1096.06 127 137 135
357.067 204.2 -1095.52 121 131 130
208.715 246.55 -1189.56 114 124 119
107.237 -101.124 -1195.19 54 108 133
62.8549 431.273 -1199.16 37 101 125
207.721 175.198 -1172.28 96 118 120
232.448 70.413 -1075.15 131 145 147
1056.78 69.7205 -1179.74 129 139 135
527.628 205.178 -1144.72 123 122 112
766.845 356.249 -1123.16 131 132 128
558.268 203.841 -1132.67 120 124 116
336.349 273.414 -1094.4 131 136 127
661.656 208.81 -1094.57 129 145 143
1038.1 6.73382 -1176.28 110 139 144
857.381 289.52 -1174.27 30 71 98
2.86369 478.491 -1199.86 49 120 152
1113.29 -128.191 -1173.72 120 127 121
571.7 80.1885 -1101.86 130 160 168
-11.797 196.442 -1196.12 32 101 131
288.323 -65.3211 -1137.03 122 128 125
822.104 -0.526039 -1130.88 139 158 166
851.85 204.501 -1171.38 37 71 84
898.47 584.537 -1181.44 119 137 131
833.205 348.51 -1109.86 128 151 152
987.739 206.655 -1184.43 88 111 117
122.231 4.7405 -1195.91 43 96 120
686.592 -55.5594 -1076.56 131 147 150
1002.52 205.431 -1179.06 20 75 101
221.477 19.6294 -1096.58 127 150 156
747.031 556.664 -1076.92 96 140 144
534.336 443.628 -1083.92 116 149 153
198.503 195.92 -1182.5 52 106 127
913.589 -17.7324 -1176.71 82 127 141
207.295 194.223 -1181.07 115 120 116
963.88 166.848 -1184.61 24 82 108
521.967 -155.141 -1181.19 19 66 88
227.91 194.623 -1177.52 140 146 138
251.243 426.1 -1116.82 118 151 142
253.418 90.3653 -1105.23 130 158 166
786.84 -115.626 -1180.44 42 77 105
482.185 189.173 -1132.52 116 123 117
816.862 -61.2033 -1154.78 102 122 127
516.893 183.202 -1122.19 119 124 114
308.915 201.897 -1127.04 138 151 147
1020.89 99.4852 -1176.42 130 136 134
818.242 324.437 -1133.4 140 167 170
338.002 200.656 -1107.24 128 140 138
937.31 65.699 -1181.98 134 140 140
851.557 0.99547 -1137.25 130 146 152
1126.05 276.63 -1173.49 15 78 106
362.178 200.393 -1100.74 121 130 128
241.786 517.195 -1164.37 138 145 133
477.433 580.257 -1186.46 97 131 138
250.666 99.4297 -1106.15 128 156 163
272.019 350.252 -1127.22 127 143 143
421.597 199.651 -1112.8 114 128 127
707.828 64.3861 -1147.32 130 133 127
446.775 199.582 -1125.9 116 126 124
590.972 204.051 -1119.18 129 129 125
616.158 204.606 -1109.35 131 136 133
651.699 204.457 -1100.53 131 137 136
761.03 433.304 -1128.83 121 146 137
108.099 369.178 -1187.86 33 105 122
867.928 201.687 -1182.24 20 64 85
-6.90127 231.576 -1196.97 35 99 127
561.984 -121.033 -1188.32 135 149 151
347.728 78.3623 -1178.74 126 130 125
872.869 201.822 -1182.09 19 70 91
881.943 204.35 -1180.78 21 74 99
146.946 -40.8198 -1180.26 57 119 140
737.693 179.231 -1119.44 120 128 128
197.122 631.466 -1195.9 38 108 133
907.241 199.447 -1180.88 22 74 102
188.016 416.959 -1099.87 120 133 130
640.102 410.773 -1152.32 107 118 127
913.309 199.222 -1185.26 90 117 118
918.078 201.723 -1185.55 79 109 115
327.109 154.705 -1147.56 121 129 127
528.898 -109.205 -1182.57 24 69 94
937.182 200.033 -1180.72 37 85 106
280.731 -69.3846 -1145.53 129 137 133
581.524 8.45043 -1128.96 123 129 125
951.684 199.922 -1184.51 20 77 104
1128.02 -53.9359 -1171.78 138 157 157
521.976 -110.664 -1185.42 46 84 100
887.199 -35.4677 -1179.87 27 82 107
518.093 631.267 -1189.41 97 126 124
38.2608 191.967 -1194.92 30 94 121
568.731 139.429 -1109.75 117 148 152
966.601 179.102 -1179.85 22 70 99
497.281 51.1159 -1097.64 130 139 140
66.6911 192.111 -1192.94 42 109 137
338.328 394.336 -1168.91 96 106 98
771.814 497.532 -1127.66 99 130 122
72.2072 191.831 -1192.22 43 109 137
1007.01 409.266 -1185.93 37 87 111
91.3797 192.377 -1194.13 30 94 118
81.7047 419.876 -1201.32 64 108 141
138.911 469.846 -1198.68 35 88 114
1007.06 200.233 -1184.97 35 84 105
237.366 -119.216 -1181.76 124 131 126
691.979 89.9754 -1166.1 128 131 124
1092.1 449.687 -1181.12 55 103 122
77.3165 118.77 -1197.46 50 99 124
977.036 34.3926 -1178.83 114 134 136
544.185 138.293 -1094.22 112 147 149
62.085 419.511 -1196.99 57 118 139
112.135 194.385 -1194.36 54 102 121
1022.09 102.478 -1181.51 17 83 109
701.635 60.2138 -1149.53 126 130 124
132.208 189.34 -1195.08 48 100 122
146.985 189.919 -1192.34 44 96 117
472.066 9.28101 -1134.7 122 133 133
162.12 190.429 -1192.05 47 96 118
167.31 189.907 -1191.62 43 94 115
71.7337 44.9484 -1197.02 47 98 124
372.395 198.494 -1104.46 120 130 129
402.832 199.382 -1110.54 114 132 131
1050.84 -125.232 -1173.76 20 92 119
1007.62 -38.6452 -1177.74 25 89 116
451.252 -80.3711 -1130.84 104 122 121
442.841 30.4261 -1127.73 126 136 131
351.189 160.616 -1151.52 102 110 103
472.117 198.843 -1132.34 107 118 113
451.537 497.671 -1132.35 138 134 133
623.37 163.571 -1129.28 119 145 144
728.676 47.1087 -1132.81 129 138 133
991.815 -130.797 -1176.29 42 100 119
653.196 201.509 -1102.07 130 142 140
283.075 404.479 -1129.83 131 164 166
322.181 214.892 -1110.06 138 141 137
743.574 202.399 -1118.68 123 144 146
142.679 -67.5723 -1189.16 53 122 144
62.3455 372.322 -1195.02 34 110 132
521.429 153.984 -1091.44 123 126 118
326.273 146.284 -1152.29 111 119 117
72.2376 39.3799 -1195.43 49 98 123
1073.67 335.049 -1183.53 138 167 168
767.336 199.47 -1125.88 122 139 143
496.247 155.431 -1105.07 127 135 128
611.771 149.302 -1129.49 118 130 131
1058.08 311.825 -1188.9 129 154 157
776.69 199.039 -1126.52 118 130 134
863.462 576.457 -1180.12 103 129 130
531.71 -76.9542 -1178.7 81 89 95
1143.01 275.895 -1175.53 23 96 128
667.197 -75.384 -1076.56 130 133 127
671.808 115.201 -1167.37 120 124 119
818.354 204.507 -1148.96 103 122 127
628.403 609.183 -1186.58 123 137 130
412.426 193.385 -1114.39 113 125 122
947.548 201.535 -1180.64 92 116 119
686.443 68.6341 -1163.99 111 135 123
957.241 202.107 -1185.26 17 82 108
807 150.478 -1095.15 122 131 124
278.999 128.123 -1149.48 119 136 137
977.412 199.859 -1179.59 22 76 103
1080.49 474.078 -1183.54 72 112 123
406.564 -74.7431 -1080.46 112 127 124
1067.5 199.79 -1181.31 31 81 105
1077.3 204.081 -1180.3 35 82 106
374.353 285.264 -1103.64 121 128 122
382.081 269.594 -1095.25 126 136 133
1098.23 202.781 -1181.98 23 76 105
600.183 106.163 -1132.03 123 149 154
1102.14 203.764 -1181.01 22 76 103
452.19 204.509 -1129.09 115 126 124
176.884 190.663 -1186.98 46 105 131
2.60474 329.54 -1196.8 59 115 140
207.08 190.674 -1180.42 110 120 116
-2.75609 349.162 -1197.27 66 115 139
86.8841 289.867 -1196.35 59 107 128
247.885 189.128 -1167.57 134 139 131
926.813 179.443 -1180.79 28 74 101
133.388 299.132 -1198.94 29 83 104
957.039 557.184 -1182.5 13 90 117
322.499 646.456 -1194.87 121 143 134
599.566 212.168 -1114.19 140 140 136
1067.18 55.1053 -1180.99 129 139 138
336.945 199.314 -1110.84 129 136 132
65.8471 137.644 -1193 51 98 123
267.151 -59.6926 -1156.87 125 134 132
1117.8 -122.889 -1174.64 120 127 121
572.346 88.676 -1100.71 126 156 165
417.2 -124.017 -1185.35 124 141 140
471.59 129.349 -1105.47 137 140 132
771.603 -160.398 -1181.53 98 108 112
1036.76 -131.386 -1174.48 20 92 119
356.987 197.874 -1105.24 120 129 126
361.617 197.715 -1104.89 118 127 124
382.421 199.451 -1105.94 115 126 124
413.253 199.541 -1115.52 113 136 135
417.19 199.46 -1112.47 116 130 128
1006.77 -0.76268 -1180.05 56 93 114
337.832 219.889 -1086.41 130 136 132
436.525 194.54 -1120.47 115 127 124
836.756 168.653 -1106.25 101 120 117
456.803 193.802 -1127.55 111 123 121
927.2 621.768 -1181.86 86 120 123
783.529 107.32 -1083.09 137 138 134
471.931 195.031 -1130.95 112 121 116
497.219 199.684 -1139.01 111 115 105
547.36 198.759 -1135.43 127 126 119
-35.8597 391.578 -1197.31 45 112 140
454.724 -55.1711 -1141.78 124 147 153
581.896 201.243 -1123.65 136 138 130
1092.79 158.027 -1177.97 20 81 108
252.337 -0.259574 -1144.77 101 115 114
702.785 202.025 -1104.73 121 143 143
993.484 324.634 -1184.56 133 158 165
816.733 -4.40735 -1132.59 139 162 169
813.827 591.925 -1178.8 86 130 131
802.148 199.94 -1136.48 117 135 143
563.595 388.115 -1088.95 122 136 138
1071.86 470.651 -1184.8 33 91 117
997.562 200.464 -1178.05 21 81 105
617.942 606.699 -1187.31 123 131 129
981.667 328.756 -1177.14 17 82 110
1122.17 203.344 -1176.6 48 90 108
372.623 641.918 -1197.39 117 149 143
259.216 104.5 -1124.56 125 155 163
701.78 -0.504229 -1112.04 115 125 124
22.9418 82.272 -1195.68 35 100 126
981.972 84.6933 -1175.67 135 139 133
51.8151 184.911 -1194.91 53 110 135
57.1394 183.989 -1194.24 52 110 136
1058.36 572.351 -1184.78 119 137 131
301.629 124.478 -1155.57 113 123 121
241.203 563.256 -1185.09 28 94 114
1106.44 589.005 -1178.75 119 137 131
1105.74 489.929 -1177.91 14 81 114
61.4821 188.46 -1195.17 53 104 130
66.9712 185.216 -1196.19 51 108 134
425.72 43.6159 -1139.22 135 135 131
927.379 496.695 -1184.36 95 121 111
77.1989 184.453 -1195.24 45 104 128
566.727 340.174 -1111.99 118 124 119
716.274 94.783 -1154.32 131 134 128
92.9613 -83.3863 -1190.66 32 97 122
-6.54168 42.9503 -1193.01 38 122 145
587.034 54.3789 -1120.34 122 145 149
972.095 30.3232 -1177.66 128 142 144
92.3148 185.237 -1196.95 47 104 129
101.608 184.445 -1195.32 47 103 127
232.574 33.6574 -1100.14 131 155 163
752.041 259.831 -1125.97 127 150 159
857.236 -50.7786 -1170.51 88 93 96
682.187 104.286 -1169.23 127 132 126
257.573 189.533 -1164.89 131 134 127
348.314 133.446 -1168.6 101 109 104
930.997 449.523 -1182.09 20 71 103
952.52 452.573 -1177.72 109 130 116
277.358 191.971 -1152.75 119 141 132
56.6975 13.0315 -1198.54 52 105 129
47.2488 29.9104 -1198.85 48 112 138
332.849 195.103 -1116.61 136 142 139
346.996 194.752 -1110.18 122 131 128
126.152 14.6902 -1194.3 42 95 119
383.371 196.413 -1107.41 112 128 125
788.588 124.373 -1087.09 135 140 133
475.908 193.967 -1132.19 112 120 115
338.215 264.471 -1085.99 128 137 128
1085.63 120.478 -1182.64 119 127 122
122.268 224.925 -1195.93 52 98 120
362.333 44.719 -1174.33 114 117 113
626.977 254.443 -1070.04 133 132 123
517.411 195.298 -1134.41 117 117 109
836.77 -115.663 -1180.65 18 83 115
552.178 199.832 -1134.66 125 126 118
311.884 147.956 -1153.94 126 129 125
611.796 198.44 -1114.41 130 136 131
663.46 -50.0559 -1082.49 133 137 130
858.552 196.92 -1175.31 19 55 76
886.91 196.794 -1184.07 15 75 99
596.183 379.491 -1117.64 116 145 147
162.67 -52.7438 -1175.17 58 117 140
666.739 586.834 -1182.56 126 143 132
196.879 22.8615 -1185.37 20 74 98
721.582 189.979 -1112.19 122 128 126
642.302 144.107 -1145.59 118 130 131
1012.13 200.323 -1184.51 32 82 105
847.477 408.932 -1058.78 58 96 114
464.242 -38.8748 -1149.73 126 149 150
127.68 185.992 -1193 41 109 133
163.469 186.926 -1191.59 24 89 113
286.846 -175.183 -1185.55 128 134 134
-28.235 291.689 -1198.51 38 105 134
78.6393 348.643 -1199.1 66 109 132
1122.96 139.467 -1175.28 126 139 131
742.477 611.54 -1185.73 112 143 138
77.5954 109.108 -1195.74 45 96 121
578.208 -75.7398 -1151.34 133 146 145
83.4944 -13.7137 -1192.98 37 112 132
456.394 100.897 -1108.78 139 144 139
231.618 -146.158 -1192.17 106 115 106
352.019 193.753 -1109.23 119 127 123
1047.25 -30.853 -1179.51 66 116 134
404.067 196.133 -1113.98 116 136 133
432.301 194.746 -1119.49 113 123 122
251.681 -185.852 -1189.1 121 125 118
672.09 406.7 -1167.28 119 129 124
197.415 -105.306 -1186.87 32 41 41
951.512 0.176652 -1184.29 24 88 118
602.954 2.08515 -1129.43 126 141 139
644.322 -56.7814 -1092.8 132 133 129
732.698 110.245 -1136.29 139 143 138
392.16 10.059 -1138.55 115 118 110
1142.49 299.208 -1182.9 32 87 116
627.524 195.884 -1112.11 131 136 133
1030.7 28.7541 -1173.07 139 157 153
225.397 409.357 -1097.4 128 139 141
327.526 84.5688 -1180.47 106 107 102
978.219 589.068 -1184.51 109 132 129
652.144 199.356 -1105.51 128 137 135
677.01 195.214 -1106.32 124 132 129
556.626 477.628 -1117.39 120 132 139
742.197 199.356 -1117.12 124 141 144
517.836 138.211 -1077.38 122 131 121
587.111 -0.546506 -1129.85 126 131 129
1097.02 434.236 -1180.35 14 81 114
1048.23 189.663 -1177.65 19 79 107
691.904 -10.8419 -1100.67 119 137 139
1098.79 622.319 -1188.24 119 137 131
787.201 38.9276 -1110.76 138 146 146
1052.13 -141.467 -1179.54 20 92 119
761.688 197.062 -1122.21 116 138 137
966.761 114.424 -1179.12 129 133 128
305.49 187.699 -1138.77 141 142 138
332.946 143.422 -1158.77 106 116 114
-12.6829 278.049 -1203.56 69 114 139
16.8013 319.039 -1195.48 63 114 139
1112.57 -27.4041 -1172.07 145 171 176
727.272 184.91 -1115.55 122 128 125
479.037 -68.0627 -1164.71 126 155 156
772.119 194.518 -1124.96 123 137 141
783.098 198.713 -1128.8 114 131 134
811.816 10.268 -1121.1 139 152 155
792.518 194.833 -1129.57 119 136 141
1152.99 147.46 -1182.08 126 139 136
97.0634 522.302 -1196.76 44 99 122
211.22 239.077 -1189.21 83 86 78
521.284 298.605 -1144.57 128 129 124
3.02499 169.457 -1200.61 33 96 124
556.132 89.0321 -1081.3 134 163 171
442.072 583.316 -1185.04 116 162 166
36.7661 284.567 -1202 58 111 136
992.209 196.323 -1176.98 17 81 106
672.299 551.731 -1052.11 111 139 136
426.784 -35.3884 -1120.99 122 140 145
990.907 565.088 -1178.16 16 82 104
1006.85 193.219 -1182.39 37 85 107
537.737 139.548 -1089.48 116 139 145
264.803 99.0121 -1122.24 122 145 151
827.725 374.969 -1076 125 142 145
480.69 587.276 -1168.2 141 145 138
387.229 599.36 -1191.06 113 146 141
1047.35 -84.9097 -1175.83 38 91 116
1012.15 194.363 -1181.99 20 73 102
1032.94 195.006 -1179.27 20 73 103
-1.79248 11.6733 -1199.07 35 108 136
547.285 -45.0985 -1161.49 135 143 141
-0.946316 10.6199 -1198.18 33 103 132
901.565 329.378 -1184.39 16 81 108
279.377 -83.0751 -1145.71 96 119 115
1056.45 198.982 -1182.46 19 77 103
1076.78 198.862 -1179.91 29 81 105
677.024 168.764 -1134.87 128 135 131
741.739 159.154 -1124.65 133 134 129
953.807 167.489 -1181.64 66 108 120
222.443 615.996 -1195.84 34 102 125
576.66 184.669 -1122.47 120 121 114
86.187 178.777 -1196.37 49 102 125
731.152 559.19 -1061.77 118 159 166
507.546 187.297 -1127.25 127 128 117
97.2439 180.185 -1195.72 49 103 125
797.534 -21.7988 -1134.5 143 167 175
552.32 -115.27 -1184.83 41 84 104
376.627 163.956 -1144.62 127 134 130
619.069 84.9823 -1149.46 109 124 123
991.111 484.366 -1184.91 14 81 114
232.472 184.674 -1171.18 132 137 130
836.861 164.987 -1097.7 79 110 110
922.039 139.051 -1182.69 15 74 97
292.199 464.035 -1139.59 130 148 150
-11.8098 16.5028 -1196.9 36 107 136
1106.71 545.015 -1185.27 32 90 117
421.567 191.509 -1117.35 112 124 121
426.791 657.021 -1191.1 117 159 160
221.812 -190.398 -1190.82 98 101 93
593.225 562.597 -1141.41 118 128 124
107.338 111.648 -1193.69 45 96 118
933.271 -41.2011 -1179.06 73 111 131
436.8 188.942 -1120.76 115 125 120
992.086 599.07 -1180.01 96 125 125
321.958 249.853 -1099.84 143 144 137
66.3602 136.354 -1201.09 48 114 141
467.606 189.025 -1127.67 113 120 115
791.962 362.439 -1108.61 133 143 143
749.31 249.284 -1129.25 103 149 153
774.194 30.4261 -1117.53 137 140 139
993.455 174.148 -1177.24 117 138 139
467.201 194.114 -1129.49 113 121 117
361.901 134.273 -1170.18 117 124 118
912.619 121.732 -1180.63 20 68 90
1051.82 184.703 -1180.11 48 89 110
1067.25 -84.5681 -1175.66 40 91 117
617.372 194.197 -1116.02 131 138 134
642.385 197.42 -1109.06 128 137 135
646.79 149.328 -1144.56 117 130 131
62.224 164.676 -1197.03 54 100 124
537.9 -85.4796 -1182.16 97 122 128
1048.17 351.545 -1176.08 136 159 161
506.629 -156.421 -1182.73 20 66 92
782.056 194.689 -1126.09 121 135 139
842.174 196.611 -1150.04 114 124 121
1113.02 197.202 -1179.16 94 117 118
750.439 94.3817 -1125.86 146 146 144
827.537 506.705 -1141.86 115 138 135
182.841 310.383 -1175.95 41 90 108
208.925 138.942 -1125.82 21 77 98
92.1823 404.019 -1200.69 53 102 125
887.218 305.525 -1185.03 35 87 112
1.37944 56.7216 -1192.75 36 121 144
1117.46 197.124 -1180.62 14 81 107
92.0983 38.4985 -1197.82 40 97 121
913.55 554.752 -1184.43 92 125 126
147.929 181.163 -1190.68 46 105 129
597.453 -111.437 -1183.97 31 74 95
779.526 258.474 -1153.11 117 141 151
163.022 180.255 -1188.18 44 103 126
187.947 182.112 -1182.67 48 105 128
447.549 174.133 -1123.47 123 125 120
212.116 264.099 -1189.01 133 144 141
617.13 -130.547 -1184.98 19 61 83
22.416 148.874 -1192.8 32 97 127
442.208 140.128 -1125.59 137 139 133
361.565 -2.69111 -1126.83 117 118 112
221.716 114.08 -1091.67 112 126 126
382.392 608.657 -1194.29 115 153 147
1083.37 656.021 -1192.75 119 137 131
492.598 471.713 -1113.39 135 136 132
542.23 189.552 -1130.23 113 114 105
838.34 -50.5985 -1162.1 136 171 177
987.089 90.7987 -1182.44 21 84 112
68.1622 -18.2027 -1192.72 31 100 126
746.092 -61.0467 -1101.78 126 150 155
607.114 194.684 -1116.81 129 133 128
762.319 606.617 -1185.91 119 153 155
781.749 170.675 -1112.42 124 141 139
612.995 189.671 -1116.55 130 144 141
1051.23 -175.331 -1174.26 20 92 119
1023.29 331.63 -1184.71 116 150 156
622.171 128.798 -1141.13 121 140 144
1097.09 190.072 -1176.11 20 74 101
31.8233 420.276 -1199.96 66 114 141
661.776 194.504 -1110.53 123 131 128
232.771 -18.0778 -1147.25 115 135 136
671.602 193.382 -1109.46 119 130 126
811.249 194.449 -1136.93 113 131 137
427.132 -120.027 -1186 35 74 93
881.786 191.328 -1182.59 13 72 94
48.69 -68.9443 -1197.26 44 104 133
206.362 469.014 -1169.46 118 127 115
315.654 380.08 -1153.65 116 135 136
121.528 163.709 -1196.84 45 95 114
874.469 162.726 -1176.21 46 84 98
242.199 63.6586 -1085.14 122 144 147
1072.42 643.904 -1189.08 119 137 131
4.07303 -38.8485 -1197.2 39 117 142
27.6493 16.3375 -1197.21 44 102 128
63.5535 583.191 -1198.97 52 123 149
976.603 485.198 -1182.84 14 81 114
473.662 406.057 -1077.44 107 123 109
1102.17 635.889 -1188.59 119 137 131
1008.11 381.456 -1184.55 137 156 155
1066.77 134.103 -1179.94 110 120 117
907.389 71.5102 -1180.2 22 67 89
46.4307 174.529 -1196.33 53 103 126
56.9428 176.371 -1195.52 39 108 133
571.786 179.246 -1119.74 119 120 112
37.1268 44.7778 -1196.55 50 103 132
643.425 166.142 -1133.87 126 147 147
536.774 335.388 -1106.54 110 117 114
1081.4 274.434 -1179.5 21 85 116
101.521 325.063 -1194.59 64 109 129
1022.52 521.257 -1176.54 50 86 94
1047.64 646.445 -1184.11 20 86 106
31.7848 91.2796 -1197.51 31 115 135
-26.4771 484.754 -1195.74 58 122 156
252.354 178.689 -1162.72 124 127 119
257.777 178.822 -1161.56 124 128 119
126.865 35.8003 -1199.46 33 113 131
1053.79 613.504 -1189.65 119 137 131
1141.62 637.317 -1186.26 119 137 131
771.691 134.296 -1105.14 133 138 134
261.903 179.804 -1160.39 130 130 123
287.229 189.197 -1149.01 135 140 135
156.099 115.648 -1194.89 34 85 104
1027.17 289.435 -1177.25 18 82 110
371.917 184.95 -1121.14 121 129 127
333.389 62.5457 -1178.95 101 112 104
736.598 527.639 -1080.56 120 137 138
766.437 -106.082 -1180.47 122 142 145
537.385 189.408 -1130.61 116 118 108
-17.2342 67.1978 -1193.07 39 115 144
633.064 235.677 -1077.61 137 142 139
702.149 189.423 -1110.83 125 131 129
732.702 189.36 -1114.86 122 135 133
263.661 21.2449 -1145.29 95 144 145
737.286 189.37 -1115.16 121 134 134
1113.6 -167.598 -1172.58 120 127 121
512.271 134.037 -1076.83 129 128 121
741.881 188.753 -1115.77 122 133 134
672.385 60.1287 -1159.39 104 109 98
567.509 631.522 -1189.47 46 78 98
767.165 188.662 -1122.61 120 133 133
777.327 190.459 -1124.68 120 138 142
787.211 194.565 -1126.95 118 134 139
788.377 194.715 -1129.02 118 134 136
1133.17 -120.588 -1171.23 120 127 121
925.963 -88.6294 -1180.84 25 87 115
220.381 46.3369 -1077.32 117 127 127
152.242 387.12 -1191.66 28 82 106
973.513 189.489 -1184.06 82 110 118
271.798 54.5591 -1140.94 117 136 140
622.401 159.562 -1127.45 121 132 132
1026.88 189.655 -1184.38 15 82 106
-28.0059 468.828 -1196.17 80 125 157
466.785 -70.4693 -1150.78 91 108 107
1027.08 189.191 -1180.29 33 81 102
1041.99 189.583 -1179.63 20 74 100
917.23 126.658 -1181.58 17 70 94
1056.9 189.512 -1181.52 33 80 102
1083.21 231.316 -1177.27 19 92 121
1066.88 189.572 -1182.7 27 77 102
1132.48 333.893 -1182.21 47 101 123
991.499 174.809 -1180.63 38 84 107
1082.28 189.475 -1181.62 27 77 102
1092.19 194.259 -1181.35 21 73 102
402.194 399.679 -1151.52 141 144 135
1142.2 379.139 -1183.11 17 75 103
1103.1 190.629 -1181.33 78 107 115
535.888 9.65365 -1133.85 127 145 143
671.509 165.834 -1137.33 117 123 122
661.752 94.873 -1170.85 116 122 114
577.579 -101.226 -1185.31 33 74 97
454.574 180.295 -1123.19 106 113 107
1112.75 190.954 -1179.44 84 112 117
463.425 94.0264 -1096.66 135 139 133
80.5103 -16.073 -1198.93 53 98 123
132.666 175.1 -1195.02 47 97 116
492.459 80.5498 -1066.89 125 130 129
141.754 177.164 -1192.97 46 105 132
471.951 49.6371 -1110.52 137 143 142
171.713 176.59 -1187.02 44 103 126
241.659 553.361 -1170.26 97 121 123
518.046 444.369 -1071.93 128 132 135
247.951 180.04 -1162.72 124 132 128
266.538 180.763 -1157.59 121 132 125
661.978 -104.844 -1182.76 100 106 94
450.931 104.329 -1114.92 138 143 138
131.956 568.539 -1201.89 34 88 114
302.542 185.431 -1141.67 138 140 136
98.5415 66.4315 -1192.7 26 107 132
478.349 114.143 -1092.14 135 139 131
-2.15627 263.705 -1199.98 63 117 140
2.67824 259.857 -1197.18 35 100 128
806.571 -30.2017 -1140.77 139 165 173
672.374 149.573 -1150.27 123 128 124
407.141 184.247 -1119.44 112 121 116
292.087 74.3169 -1165.44 77 85 80
102.342 104.361 -1194.74 31 90 114
497.809 138.395 -1092.02 127 130 121
927.037 -45.3822 -1179.49 55 100 122
773.321 49.3289 -1111.92 136 142 140
-28.4042 298.139 -1197.82 31 103 135
432.182 184.428 -1121.64 116 124 120
471.954 184.482 -1127.03 117 124 119
701.634 9.62907 -1116.63 114 120 114
487.13 185.006 -1129.14 120 126 120
492.927 186.607 -1129.74 115 127 122
1078.45 649.641 -1190.98 119 137 131
642.299 292.573 -1087.48 134 132 124
937.212 -80.969 -1179.84 23 88 116
412.66 602.02 -1193.74 118 160 159
498.283 186.72 -1129.92 117 130 123
864.189 525.911 -1161.88 119 137 131
1067.31 108.841 -1181.93 130 135 128
132.322 358.838 -1193.77 57 103 124
321.603 289.321 -1118.72 136 141 131
516.97 185.53 -1124.57 119 122 112
567.877 129.119 -1104.05 125 150 156
522.003 184.402 -1124.41 113 119 110
1096.53 174.048 -1180.49 43 83 108
1058.21 440.942 -1183.62 141 155 151
812.371 180.261 -1124.44 118 131 129
552.168 59.8616 -1095.99 132 158 163
212.394 34.3395 -1082 56 117 139
582.878 189.482 -1122.46 123 126 120
637.122 189.461 -1115.48 128 135 133
582.125 134.324 -1114.93 118 141 147
467.025 14.9713 -1132.21 126 139 139
776.423 189.686 -1123.07 121 134 133
292.884 611.707 -1196 137 156 142
250.674 -169.6 -1187.66 121 125 118
443.678 -23.0019 -1133.66 125 146 142
-27.0482 489.83 -1199.45 37 118 156
877.583 187.16 -1180.58 16 67 89
1002.1 -120.419 -1176.28 31 96 119
-17.5705 354.353 -1199.92 65 116 142
790.567 -32.8468 -1133.05 137 156 159
873.908 -50.4763 -1179.23 123 145 148
407.374 -35.3604 -1110.24 119 134 136
892.802 186.931 -1185.77 12 77 99
562.309 179.324 -1122.03 117 119 111
997.492 189.196 -1180.71 38 83 104
348.305 -6.0959 -1125.92 115 126 119
1101.72 189.775 -1176.43 18 78 104
997.112 27.5537 -1179.32 126 140 142
1124.29 192.344 -1183.78 17 77 106
27.4683 169.128 -1196.88 50 100 126
97.072 270.184 -1194.75 53 103 126
32.1224 169.985 -1195.77 53 104 130
243.481 179.545 -1162.98 130 138 133
901.708 -49.9345 -1180.26 31 87 116
57.0638 80.0226 -1201.73 50 104 128
127.702 441.666 -1194.99 33 91 112
762.685 89.7497 -1101.42 144 146 142
-1.11412 171.012 -1199.45 33 97 125
352.594 183.459 -1125.59 113 122 120
1033.09 411.42 -1183.7 80 114 127
362.276 184.65 -1125.57 110 121 115
747.11 124.205 -1120.43 140 144 139
937.85 123.548 -1180.72 105 120 116
1148.02 86.3367 -1181.05 130 144 134
109.494 467.079 -1199.6 59 105 125
137.826 419.455 -1196.51 28 88 112
573.547 307.777 -1117.63 130 140 132
387.39 184.176 -1120.11 113 122 118
527.289 184.224 -1125.21 110 116 108
81.6197 14.9983 -1194.12 47 99 126
587.616 189.661 -1121.92 126 126 121
596.697 189.47 -1121.12 128 130 125
87.823 -55.5231 -1192.66 35 95 122
753.746 544.004 -1100.66 112 159 163
671.651 188.235 -1115.85 118 127 124
632.193 134.554 -1144.77 117 129 131
722.849 189.463 -1113.82 123 135 134
981.93 127.797 -1178.07 11 84 104
222.817 -80.2444 -1181.93 127 141 140
846.445 186.907 -1151.62 103 123 115
488.307 375.969 -1077.53 131 134 133
963.389 -83.7758 -1176.52 120 127 121
1063.12 164.969 -1182.14 91 116 121
178.353 9.41451 -1191.43 22 82 107
-6.38293 -23.1341 -1197.59 39 111 136
862.286 186.487 -1177.18 20 54 75
18.19 56.4828 -1198.53 31 100 126
998.572 214.514 -1184.36 39 91 118
912.313 186.924 -1185.49 16 74 100
932.412 188.632 -1182.56 34 81 101
980.755 186.747 -1184.37 19 79 108
498.587 -83.0805 -1180.51 112 137 137
1143.27 523.806 -1180.85 126 138 134
592.561 -160.316 -1186.32 21 66 91
520.905 549.668 -1172.44 138 140 131
551.847 -9.61669 -1140.77 129 139 137
931.427 165.397 -1182.23 122 141 141
709.079 -48.486 -1088.74 129 147 154
423.374 454.445 -1138.62 129 134 129
352.462 611.765 -1192.92 117 146 139
96.765 170.346 -1195.12 50 101 125
1132.24 194.347 -1177.21 108 126 122
1071.83 483.977 -1186.89 14 81 114
161.448 529.559 -1192.53 132 150 159
92.9396 514.6 -1198.57 32 97 119
406.981 -5.93086 -1125.59 115 120 115
142.225 174.325 -1195.02 46 96 115
832.133 -156.525 -1182.11 20 83 114
157.863 171.985 -1191.68 45 105 128
592.028 -120.209 -1185.94 31 74 96
238.599 -90.5258 -1179.85 113 142 148
544.746 472.126 -1107.82 121 132 132
986.326 419.329 -1188.95 19 81 113
1142.78 171.41 -1182.16 118 138 140
751.781 384.88 -1130.59 135 134 135
147.075 114.768 -1194.02 40 89 111
933.113 624.79 -1184.28 119 137 131
391.535 563.837 -1082.43 116 150 141
262.594 173.958 -1157.52 123 124 115
552.381 68.4304 -1089.64 135 160 167
317.558 179.587 -1136.68 135 142 137
332.006 179.56 -1130.35 125 134 129
188.741 111.816 -1193.79 21 78 102
843.595 31.2406 -1082.75 138 158 157
435.595 179.992 -1123.89 123 130 125
448.91 181.745 -1123.79 113 130 126
660.875 482.247 -1119.29 114 116 107
467.275 179.416 -1124.89 117 122 116
492.084 180.16 -1124.83 120 125 120
1088.5 592.731 -1182.62 119 137 131
667.521 631.399 -1189.91 124 143 132
768.98 -25.4847 -1123.83 131 151 158
351.67 -129.402 -1189.4 111 128 129
248 57.3947 -1100.04 127 154 160
677.36 186.021 -1116.01 128 134 130
682.259 184.887 -1115.82 130 136 131
686.872 184.21 -1115.42 125 131 128
635.428 254.951 -1063.74 132 130 121
161.628 -105.542 -1193.95 50 98 123
103.221 81.7297 -1192.65 29 88 113
718.168 189.041 -1114.26 116 139 137
452.158 115.119 -1115.94 137 139 133
460.71 236.886 -1143.35 106 132 132
412.8 135.01 -1141.87 129 132 128
-27.4775 531.122 -1197.63 83 119 153
772.069 184.42 -1120.34 122 132 132
682.426 150.13 -1147.31 138 145 142
266.088 239.981 -1168.81 139 144 142
78.7254 483.1 -1198.92 37 98 126
551.857 374.594 -1089.99 121 133 139
787.254 190.196 -1124.76 121 136 140
66.7441 -40.0684 -1199.79 52 108 134
658.778 545.826 -1065.08 117 142 136
837.613 319.075 -1149.72 132 143 148
687.99 651.9 -1187.05 120 143 131
1056.92 184.208 -1181.1 34 79 105
181.853 264.16 -1190.33 52 95 114
141.911 47.2851 -1198.68 28 111 129
172.968 -165.725 -1193.67 76 86 87
967.426 174.635 -1180.55 42 87 108
367.835 -14.6231 -1115.35 114 125 124
210.752 293.418 -1174.09 113 119 119
162.936 465.261 -1192.27 40 104 122
1121.9 184.095 -1180.57 34 78 104
996.771 641.326 -1183.75 20 86 106
697.07 183.727 -1115.44 122 130 126
170.885 169.485 -1187.36 42 104 127
237.018 546.913 -1169.87 128 138 131
286.41 -161.118 -1187.53 128 134 134
302.704 39.7749 -1165.22 74 99 86
714.66 418.993 -1153.79 130 130 132
218.15 174.678 -1168.13 94 110 100
222.832 174.881 -1167.58 113 121 112
16.7321 111.479 -1202.05 37 118 142
237.496 173.742 -1162.71 133 138 130
298.343 177.245 -1142.95 122 140 134
991.821 214.545 -1183.85 30 80 107
657.613 179.105 -1124.67 117 127 126
507.1 179.136 -1120.47 124 127 119
532.298 178.794 -1120.41 108 116 109
726.841 10.084 -1120.83 116 122 116
488.874 492.198 -1127.98 130 131 127
562.269 184.265 -1124.27 119 118 110
81.7732 269.354 -1193.99 53 106 127
617.069 184.241 -1119.32 128 133 131
662.126 184.445 -1120.85 119 126 124
291.762 140.373 -1152.21 111 122 119
936.792 244.985 -1186.16 24 83 117
796.191 -26.2109 -1135.43 141 167 175
1122.5 171.325 -1177.85 15 84 109
916.922 137.306 -1182.3 18 66 90
77.2104 165.128 -1194.63 51 102 125
737.167 19.745 -1125.92 119 126 119
156.431 165.132 -1190.74 45 90 108
1137.63 166.704 -1181.59 97 125 130
47.4041 139.777 -1196.83 44 102 127
862.855 -151.08 -1177.62 137 160 165
455.305 -20.6086 -1137.68 126 142 146
-12.588 470.672 -1200.26 64 120 152
347.065 -41.3332 -1090.81 121 123 117
402.036 -8.89406 -1123.9 113 119 114
442.221 478.931 -1132.68 136 137 130
216.886 168.9 -1166.4 84 87 76
357.324 178.624 -1136.56 103 114 108
392.118 178.682 -1125 117 126 122
511.604 342.829 -1099.16 130 132 128
1057.46 -38.2226 -1177.83 25 88 116
103.394 386.262 -1192.82 33 106 124
831.608 304.352 -1152.36 134 151 159
776.622 374.822 -1114.61 135 140 143
276.682 601.339 -1194.36 133 152 140
596.69 185.406 -1122.91 127 131 126
611.681 179.935 -1122.12 124 132 129
632.527 183.876 -1119.76 123 132 130
656.025 180.684 -1122.14 122 130 129
-8.17213 334.212 -1198.61 67 116 140
680.437 183.112 -1119.17 133 140 137
136.784 566.846 -1199.34 35 89 115
426.374 -20.8119 -1121.61 116 127 130
120.905 436.766 -1193.11 35 106 125
77.6164 406.258 -1196.62 35 99 123
824.973 186.785 -1134.33 111 123 125
660.806 -30.0126 -1094.29 138 137 130
547.735 579.778 -1189.5 106 119 123
902.039 -45.3458 -1181.12 37 89 116
853.826 181.792 -1167.57 100 118 122
907.498 179.31 -1185.46 14 80 102
967.05 179.469 -1184.6 23 79 109
806.897 3.24195 -1124.78 141 158 162
972.345 181.186 -1185.42 20 79 109
447.411 474.139 -1134.34 119 140 127
1043.08 471.558 -1184.15 127 141 130
991.616 179.574 -1179.82 31 77 102
321.955 657.342 -1192.09 124 145 136
1058.3 616.146 -1180.51 20 86 106
212.875 -36.771 -1159.58 117 131 131
1036.68 19.0322 -1176.45 126 141 144
119.034 165.693 -1199.46 48 111 137
162.118 164.826 -1189.32 47 92 110
421.715 359.822 -1134.4 136 134 126
342.885 283.698 -1096.29 135 140 127
901.926 530.056 -1174.62 119 137 131
850.831 590.598 -1184.28 104 136 129
957.134 3.18651 -1177.99 39 85 105
27.5909 249.703 -1200.24 55 109 133
282.185 169.902 -1151.82 117 116 108
578.741 84.3275 -1108.55 120 146 155
286.965 169.724 -1151.1 131 132 125
537.252 -35.4456 -1161.62 135 143 142
297.563 170.077 -1147.24 133 135 127
1042.37 423.088 -1184.15 109 132 117
657.396 225.272 -1076.66 135 140 138
781.873 99.8351 -1080 135 136 133
1072.48 -4.40274 -1183.96 143 161 159
412.033 174.738 -1124.15 120 126 122
436.368 174.504 -1124.01 124 127 121
442.043 174.097 -1123.5 123 125 119
578.607 -66.9843 -1147.98 134 147 146
1012.47 594.291 -1185.23 20 86 106
357.347 84.4719 -1177.38 108 111 102
67.0719 239.303 -1191.98 30 104 126
892.435 37.3407 -1181.02 20 66 88
472.17 174.506 -1123.78 123 126 121
693.352 114.444 -1162.23 135 141 139
66.6369 -45.3449 -1193.04 31 102 127
639.959 42.6403 -1137.71 115 122 116
627.634 597.087 -1191.12 128 145 133
555.569 75.327 -1087.64 136 164 172
356.713 -107.028 -1188.62 106 121 122
496.604 175.008 -1120.28 126 129 121
658.394 370.681 -1159.82 101 114 109
541.67 179.213 -1121.34 113 116 108
221.749 -75.3968 -1180.36 129 139 137
762.619 179.72 -1119.74 123 134 135
143.418 449.101 -1198.39 32 87 110
413.839 99.9079 -1147.33 138 139 135
581.974 -40.9503 -1139.39 134 141 137
772.917 182.326 -1118.02 123 135 130
836.199 356.028 -1101.56 125 144 146
225.058 25.8123 -1101.15 128 149 152
777.366 591.588 -1180.99 117 158 162
731.838 -25.4141 -1106.94 124 142 147
792.161 182.472 -1125.36 106 136 132
250.978 420.956 -1112.34 119 152 144
711.467 99.9529 -1158.84 137 140 138
73.4594 152.422 -1192.98 29 92 118
938.104 626.448 -1184.61 99 127 126
961.75 179.392 -1180.42 31 77 103
1062.05 49.377 -1175.75 20 82 107
1041.9 179.372 -1180.5 35 80 103
682.88 503.716 -1082.86 113 143 134
780.993 115.23 -1089.15 135 139 134
127.036 398.872 -1195.75 47 95 117
1137.32 -23.1676 -1172.87 14 94 116
792.048 83.5066 -1075.03 133 142 141
91.8076 135.732 -1193.14 51 101 120
62.2208 161.264 -1196.71 44 99 125
788.325 69.9191 -1091.65 142 148 148
985.89 449.105 -1184.79 46 98 115
406.997 -140.43 -1185.87 43 74 92
500.443 109.766 -1069.18 132 137 129
293.132 346.509 -1136.25 118 139 138
1062.02 514.503 -1174.21 99 120 109
1037.29 -65.6967 -1176.48 24 89 116
432.033 583.242 -1189.53 122 163 166
401.842 522.475 -1116.82 128 144 133
942.715 647.064 -1190.27 86 120 123
31.7239 84.4692 -1201.6 51 100 126
182.266 -80.8899 -1180.28 70 109 123
786.543 61.1929 -1098.71 135 146 143
343.552 650.357 -1194.15 126 147 131
308.178 173.715 -1142.57 132 140 137
873.908 -5.08035 -1179.23 123 145 148
557.681 27.0482 -1119.32 123 147 148
547.322 178.13 -1120.82 114 118 110
738.156 154.832 -1122.56 132 145 144
83.2743 -74.1907 -1192.91 54 106 134
737.278 159.514 -1126.14 133 133 129
822.61 138.278 -1072.65 123 128 120
518.289 91.8953 -1054.37 123 134 127
758.566 108.994 -1106.5 140 141 136
301.147 130.116 -1152.69 112 126 123
822.099 75.9546 -1057.61 136 138 132
13.5369 17.3489 -1198.82 38 121 142
566.547 169.579 -1116.89 116 118 110
1148.5 -153.742 -1177.59 120 127 121
18.5668 16.3106 -1196.67 30 104 133
141.951 94.7341 -1192.36 43 95 116
608.724 174.376 -1122.39 122 139 137
651.869 178.873 -1124.51 123 129 128
542.187 -61.9036 -1168.92 139 146 143
1067.24 61.1042 -1175.78 24 81 106
722.386 178.124 -1119.74 126 131 129
1081.67 606.621 -1188.45 119 137 131
776.928 179.046 -1116.59 123 132 134
821.608 485.515 -1115.73 129 140 141
842.551 179.462 -1130.74 106 125 124
277.217 149.435 -1149.66 120 123 118
1071.92 154.184 -1180.33 114 127 121
112.773 79.4991 -1194.95 47 95 118
876.378 149.232 -1189.4 21 57 76
193.253 101.055 -1191.96 19 75 98
922.42 178.711 -1183.73 19 71 98
482.71 8.97765 -1134.78 122 135 135
901.91 521.558 -1180.46 47 85 93
601.499 66.8664 -1127.81 111 138 144
591.854 209.305 -1117.14 134 134 130
497.292 163.733 -1110.72 128 129 122
1145.63 508.919 -1172.44 125 137 129
1128.24 181.937 -1176.04 12 81 104
136.746 160.754 -1198.86 45 108 134
221.886 165.142 -1161.38 100 99 89
887.087 11.8443 -1183.89 26 60 83
237.22 163.858 -1155.94 131 133 126
246.687 165.247 -1154.43 123 126 120
852.879 560.581 -1176.49 115 137 133
252.512 164.822 -1154.48 125 134 127
302.127 169.78 -1146.02 131 134 128
742.684 186.016 -1119.3 125 146 148
418.591 45.1335 -1142.03 130 133 128
556.723 434.23 -1092.29 123 138 140
386.578 169.654 -1134.61 130 137 134
1101.55 438.798 -1180.35 39 96 121
732.101 -16.394 -1110.1 124 138 143
946.142 77.4521 -1176.75 18 87 109
416.805 169.293 -1125.24 129 131 128
421.945 169.758 -1125.76 123 125 122
492.189 174.174 -1120.77 125 127 119
696.979 -146.206 -1184.83 126 130 125
341.541 -15.0126 -1125.17 121 124 117
557.244 174.416 -1120.01 113 117 109
991.663 183.786 -1178.97 20 71 101
571.46 106.688 -1097.47 123 155 165
798.101 389.948 -1087.53 136 141 146
288.331 148.763 -1147.84 111 129 125
1001.75 550.405 -1188.7 119 137 131
71.8495 536.702 -1196.66 57 112 141
971.937 -25.4779 -1180.06 29 82 105
621.606 179.31 -1120.22 124 132 131
37.1591 19.8976 -1194.73 52 102 129
731.946 9.85171 -1120.74 118 125 120
407.917 24.3381 -1142.11 126 125 120
122.401 -60.7332 -1200.65 52 99 124
391.026 45.0266 -1159.63 131 134 129
268.142 73.828 -1140.45 109 131 138
837.641 178.801 -1126 107 125 124
962.484 176.231 -1184.19 22 79 107
687.021 14.8305 -1119.71 110 116 108
1031.11 -33.4035 -1177.53 27 87 113
421.424 123.971 -1139.94 139 140 134
831.9 -74.352 -1161.48 108 132 139
952.1 -0.372755 -1179.77 37 80 106
57.4322 155.969 -1199.18 41 110 135
72.6676 154.672 -1195.54 39 97 121
86.8631 159.017 -1194.54 51 100 121
732.492 15.4603 -1124.24 120 127 122
1066.65 556.532 -1185.1 64 112 120
152.026 -65.0918 -1194.73 46 97 120
22.3891 470.347 -1200.41 55 115 143
1042.44 382.398 -1183.86 137 157 155
752.61 104.484 -1115.65 142 142 138
762.811 160.061 -1117.77 132 136 133
363.389 169.182 -1142.52 109 120 118
117.301 -104.988 -1195.26 53 107 132
442.175 169.34 -1124.32 126 128 121
-22.7966 399.148 -1200.92 73 124 151
1007.18 591.003 -1184.75 94 124 125
-8.21043 545.048 -1200.43 64 123 151
457.579 171.489 -1125.32 117 138 132
261.202 54.5284 -1125.99 123 150 157
466.866 174.71 -1123.85 129 131 125
581.61 -56.0052 -1143.84 138 145 143
501.343 175.006 -1119.6 124 126 118
1117.32 380.795 -1175.21 139 158 157
841.563 4.67159 -1126.65 144 168 173
583.365 174.054 -1123.63 121 132 129
606.71 174.225 -1124.4 119 126 124
668.29 538.805 -1060.4 114 130 128
981.702 189.945 -1177.07 20 74 101
146.822 -100.325 -1193.52 48 100 125
62.1119 -25.3302 -1196.07 53 109 135
716.692 174.811 -1121.85 123 127 126
1075.98 601.413 -1188.52 119 137 131
502.073 -155.384 -1182.07 21 67 93
732.15 175.194 -1120.21 126 129 128
737.561 175.141 -1120.04 124 129 128
1051.72 572.732 -1179.07 20 86 106
603.789 27.6942 -1128.43 105 139 138
951.838 468.419 -1179.39 30 90 115
787.572 177.111 -1121.29 108 134 130
956.886 174.726 -1178.85 36 82 104
1058.14 177.507 -1178.99 90 119 129
642.184 473.253 -1129.46 93 102 101
311.403 269.356 -1119.73 143 147 138
1107.22 177.01 -1181.41 22 85 116
17.5096 93.226 -1199.51 50 102 127
167.835 154.438 -1188.97 34 86 108
502.316 139.122 -1090.49 135 135 127
117.212 598.949 -1199.53 45 114 140
156.744 372.806 -1194.05 24 79 100
456.189 -70.9474 -1141.02 81 102 106
400.341 356.664 -1143.26 137 133 122
267.379 204.366 -1165.67 139 139 131
749.148 257.097 -1124.12 130 153 160
221.867 161.525 -1160.01 101 102 93
227.118 164.575 -1159.73 126 125 115
1012.57 584.887 -1185.38 20 86 106
337.073 -77.9203 -1071.37 130 144 141
92.8193 139.143 -1193.99 48 98 119
712.848 546.422 -1056.05 119 138 139
701.572 29.6699 -1131.78 115 117 109
1067.19 532.232 -1181.32 23 78 95
112.393 19.6235 -1197.28 29 101 122
728.524 333.982 -1127.35 117 127 123
112.915 16.759 -1195.52 26 88 114
797.597 379.471 -1091.45 134 141 145
402.537 164.954 -1130.96 129 134 130
531.005 80.54 -1067.03 128 153 159
248.082 379.153 -1103.75 132 148 156
547.34 171.762 -1119.91 109 119 113
552.637 174.443 -1119.69 113 116 107
377.076 -20.8902 -1110.96 114 123 122
592.269 169.4 -1121.96 118 123 118
612.954 526.696 -1115.58 124 139 138
616.868 169.448 -1124.48 121 132 131
152.989 497.232 -1203.59 33 89 116
487.271 582 -1191.99 97 130 131
1062.59 417.811 -1182.62 51 102 121
1017.43 -41.8993 -1179.92 73 114 135
811.396 -179.899 -1180.18 16 77 106
756.344 174.546 -1117.85 124 131 130
321.906 -90.9138 -1104.83 121 132 130
1111.85 649.278 -1181.65 119 137 131
116.8 59.033 -1193.21 28 87 112
1042.87 -14.6913 -1179.12 72 116 133
831.725 175.288 -1120.71 115 130 131
838.419 174.967 -1120.39 115 133 133
133.469 399.551 -1196.15 28 85 107
682.172 -75.4341 -1071.42 124 135 132
752.463 74.2024 -1121.14 141 146 141
887.61 171.916 -1180.54 17 73 98
936.877 173.727 -1180.99 38 83 106
963.775 171.779 -1184.36 18 84 116
258.027 76.7805 -1110.05 114 151 159
1126.76 175.253 -1181.45 42 85 109
21.214 152.416 -1195.8 46 104 132
957.243 459.749 -1184.59 14 81 114
28.4937 151.644 -1194.23 34 96 124
431.787 -15.6626 -1125.3 119 131 131
992.05 453.555 -1175.03 14 81 114
1092.34 -119.107 -1173.06 120 127 121
1131.7 258.924 -1179.06 22 83 116
516.992 449.501 -1074.5 129 133 134
290.944 376.664 -1132.5 109 154 153
441.596 -189.614 -1186.93 23 62 85
178.422 156.142 -1183.02 44 105 129
455.763 79.6509 -1104.89 137 144 138
1043.93 495.633 -1189.22 128 139 131
271.946 -30.1911 -1155.14 121 125 124
956.878 -49.9916 -1180.9 34 90 118
803.294 482.536 -1118.11 143 143 145
522.767 616.745 -1189.14 52 79 87
577.291 -10.7521 -1134.38 132 136 133
183.442 156.592 -1179.84 42 102 128
891.567 215.019 -1179.64 19 75 106
918.487 314.401 -1185.04 136 160 165
411.81 -130.609 -1185.08 126 141 140
437.156 609.467 -1192.77 116 162 164
926.679 -91.0039 -1176.7 44 98 120
372.508 164.8 -1145.87 128 135 131
760.967 -4.95954 -1122.63 130 147 151
117.766 94.4298 -1195.71 26 87 111
417.162 164.246 -1129.03 129 132 127
901.677 310.74 -1181.84 18 79 108
413.692 105.398 -1147.72 137 143 139
496.578 168.68 -1115.72 126 127 119
1118.53 161.146 -1184.54 19 80 108
796.79 207.126 -1137.95 125 138 149
581.744 149.382 -1115.63 117 128 130
678.109 171.624 -1130.87 131 146 143
682.028 174.675 -1125.86 130 132 130
687.493 170.73 -1126.81 134 139 135
8.69038 96.3974 -1197.64 32 103 130
