ply
format ascii 1.0
comment Created by Open3D
element vertex 1328
property double x
property double y
property double z
property uchar red
property uchar green
property uchar blue
end_header
335.273 70.2863 -1157.62 119 155 156
380.68 461.176 -1159.41 105 129 133
316.134 440.264 -1158.85 90 135 143
311.05 440.043 -1159.44 81 140 145
925.697 240.907 -1151.98 152 170 169
501.063 131.149 -1155.94 120 156 151
293.006 326.491 -1158.11 82 124 119
960.836 240.962 -1150.82 150 170 169
590.96 167.352 -1141.2 117 137 136
725.359 360.513 -1152.8 118 153 152
535.732 191.351 -1115 36 38 27
536.003 455.952 -1156.59 106 147 161
566.5 205.935 -1094.64 31 37 28
556.575 240.439 -1085.33 31 41 28
605.735 366.168 -1156.66 86 109 103
696.26 336.137 -1154.01 113 140 137
780.78 41.0236 -1151.86 144 177 175
505.648 436.34 -1157.22 109 138 138
626.31 446.182 -1155.07 118 144 145
920.706 366.014 -1149.71 136 154 156
910.752 413.574 -1148.12 144 164 157
510.974 211.306 -1155.22 57 101 100
842.832 360.921 -1153.41 131 153 156
211.397 86.5033 -1158.58 102 151 154
605.847 286.023 -1106.75 26 29 18
520.633 299.841 -1102.43 33 34 22
630.968 135.639 -1154.56 134 153 149
300.61 216.214 -1159.9 91 137 139
589.193 351 -1146.25 30 31 20
630.926 445.576 -1155.26 119 145 146
855.935 366.033 -1151.06 136 168 169
317.698 358.322 -1157.67 85 130 128
483.76 289.295 -1067.41 37 40 31
691.046 441.113 -1154.53 130 157 153
485.972 311.175 -1080.33 37 38 27
380.82 466.02 -1159.27 104 129 132
557.628 232.767 -1153.23 20 64 67
882.1 484.355 -1147.7 138 181 177
930.806 41.4672 -1147.59 158 177 177
530.873 281.254 -1101.45 36 38 29
294.182 307.925 -1158.21 108 132 132
696.086 440.875 -1154.13 121 151 154
315.247 76.2061 -1158.62 113 152 151
250.981 55.7225 -1159.42 107 151 151
630.887 260.815 -1110.2 28 39 29
340.88 145.975 -1158.69 109 143 143
535.91 241.424 -1156.69 38 81 82
275.875 375.943 -1159.93 85 127 127
516.138 301.405 -1100.82 32 35 23
471.762 440.305 -1158.87 107 129 123
479.074 324.879 -1078.1 24 38 18
730.62 436.067 -1152.5 116 132 133
305.557 177.016 -1157.86 92 140 140
545.709 265.978 -1104.12 29 33 23
955.55 345.772 -1150.89 141 164 159
880.643 341.416 -1151.17 132 164 162
895.928 385.985 -1148.81 144 164 157
735.341 435.338 -1152.63 123 145 146
790.792 431.166 -1152.41 121 141 143
725.988 90.9373 -1152.59 145 175 172
575.532 196.055 -1102.41 23 36 26
796.382 431.603 -1154.48 130 164 162
856.077 346.357 -1151.27 132 165 164
401.267 221.534 -1157.91 100 147 138
921.842 405.405 -1148.04 144 164 157
525.785 202.033 -1108.67 43 46 34
835.546 425.933 -1151.22 136 161 163
760.577 421.054 -1152.45 138 159 152
375.787 161.253 -1156.93 109 143 141
780.882 51.1128 -1152.24 143 178 177
930.806 415.952 -1147.59 144 164 157
515.918 371.488 -1139.73 59 48 26
540.463 421.493 -1157.22 105 150 156
934.019 415.952 -1148.16 144 164 157
731.158 351.058 -1152.1 124 163 159
400.913 385.93 -1159.56 98 129 132
945.882 415.88 -1150.38 144 164 157
784.86 380.542 -1151.91 127 158 161
951.147 415.952 -1151.18 144 164 157
626.073 196.422 -1155.8 99 122 119
860.635 150.994 -1151.47 145 176 176
510.903 61.3783 -1154.07 130 165 165
696.133 380.805 -1152.04 130 178 178
900.581 220.85 -1151.01 152 176 173
410.641 371.208 -1158.7 103 132 128
766.256 171.481 -1153.76 139 162 163
166.082 215.898 -1159.87 72 130 135
941.104 361.136 -1149.75 143 163 165
286.641 196.484 -1157.81 93 139 140
311.121 476.238 -1159.29 96 129 132
745.759 321.161 -1152.41 117 137 136
415.821 406.044 -1157.32 100 133 129
321.695 292.566 -1158.07 80 128 128
945.85 276.245 -1149.77 142 161 163
560.634 76.2254 -1155.27 134 169 166
525.736 40.929 -1155.06 136 163 161
351.008 471.029 -1159.09 100 130 126
635.309 296.421 -1099.61 38 38 23
510.976 306.061 -1099.79 33 34 22
746.367 76.9196 -1152.64 154 166 163
840.672 380.395 -1151.94 130 149 152
556.98 175.959 -1103.98 27 37 30
420.379 -12.3283 -1153.04 132 158 156
960.516 305.227 -1150.34 134 161 162
484.973 236.028 -1066.42 47 52 45
968.884 199.191 -1148.22 155 173 171
355.958 471.242 -1158.95 102 133 128
360.419 471.23 -1160.53 106 124 126
540.947 426.046 -1155.97 105 148 156
600.075 367.364 -1158.33 90 113 109
165.884 296.292 -1160.53 76 130 135
440.973 261.019 -1014.75 136 124 98
595.908 291.178 -1110.61 25 29 19
311.09 235.662 -1159.25 97 140 140
415.696 466.002 -1158.9 115 133 130
910.598 371.057 -1150.57 144 158 151
947.904 292.641 -1147.56 140 162 163
490.816 406.093 -1159.37 114 131 127
487.346 302.58 -1158.68 78 122 119
447.463 279.58 -1022.77 100 125 125
461.278 461.102 -1157.36 109 127 118
300.642 411.406 -1160.05 83 132 135
185.874 236.159 -1160.51 92 135 134
617.053 347.906 -1143.7 39 49 31
467.425 460.872 -1158.49 110 125 111
810.84 396.025 -1151.89 131 157 158
666.339 231.412 -1107.14 40 59 44
366.853 405.935 -1157.82 99 130 131
405.889 143.309 -1158.36 104 150 141
475.645 460.907 -1159.51 108 130 127
570.71 450.92 -1157.17 86 87 80
615.579 445.938 -1155.46 110 152 154
536.41 230.225 -1104.11 39 42 30
905.635 195.991 -1151.48 151 167 166
650.634 400.965 -1155.09 121 147 149
585.8 431.042 -1155.32 94 129 142
671.001 441.408 -1155.06 116 153 150
680.669 440.936 -1155.3 123 150 150
806.347 295.84 -1152.92 98 113 108
200.985 416.008 -1161.02 76 118 119
761.255 426.334 -1153.82 137 153 146
410.671 180.601 -1156.92 104 139 136
754.485 240.157 -1153.06 128 142 138
914.398 280.915 -1149.3 138 165 165
535.787 401.036 -1159.18 98 143 158
685.71 441.043 -1155.16 125 149 144
851.752 210.83 -1152.54 136 150 148
576.107 182.59 -1127.41 29 34 24
395.866 296.099 -1157.9 87 134 130
771.567 431.106 -1152.75 126 160 160
775.679 430.843 -1152.1 126 152 154
786.045 431.442 -1154.04 126 154 156
669.039 277.898 -1109.03 32 54 40
365.731 351.258 -1159.94 95 128 123
841.027 126.077 -1151.79 144 177 177
600.684 300.636 -1111.14 24 27 16
430.949 125.85 -1157.24 121 150 147
180.365 331.044 -1161.98 85 139 140
311.1 371.349 -1160.35 88 132 130
325.895 56.0959 -1157.51 118 160 162
690.47 416.36 -1153 143 171 168
925.431 415.847 -1149.16 144 164 157
565.716 310.886 -1107.15 28 36 27
790.512 306.255 -1152 122 139 135
735.575 365.063 -1154.31 124 160 158
660.296 441.078 -1155.68 120 143 146
515.915 288.69 -1043.81 32 48 43
130.098 417.219 -1162.67 76 138 135
941.141 415.956 -1150.24 144 164 157
675.386 220.976 -1155.36 118 141 135
379.665 211.236 -1157.9 96 145 140
950.936 56.7537 -1148.77 158 177 177
590.872 365.869 -1155.38 96 110 102
620.993 416.166 -1157 109 147 147
365.64 470.976 -1161.56 107 133 137
391.083 381.281 -1160.03 97 137 139
575.961 315.86 -1119.75 24 25 14
965.453 86.0159 -1148.63 158 177 177
480.806 171.445 -1155.1 104 148 143
396.363 467.046 -1157.8 100 132 131
905.979 370.894 -1149.31 144 158 151
265.872 -24.0217 -1163.54 132 163 163
400.364 467.416 -1157.64 108 128 129
445.721 461.08 -1157.35 113 129 121
961.337 346.193 -1151.75 142 163 159
645.06 242.602 -1107.99 29 42 31
755.906 376.295 -1153.78 129 167 167
380.536 71.3756 -1157.23 120 155 153
533 358.542 -1138.38 24 26 15
485.674 456.096 -1159.48 118 133 130
450.352 461.547 -1157.4 112 128 125
944.978 367.074 -1148.06 144 159 154
495.973 71.0867 -1155.1 129 162 160
750.955 416.778 -1152.65 130 157 155
560.368 156.433 -1142.28 35 37 26
454.761 462.875 -1158.09 101 130 131
396.874 436.083 -1157.95 99 132 131
674.105 313.622 -1120.93 58 62 37
466.036 436.071 -1157.28 108 134 127
405.616 366.125 -1157.65 104 126 122
835.695 480.971 -1155.06 138 181 177
805.034 322.519 -1153.85 131 149 149
455.69 460.535 -1158.85 106 133 133
395.631 436.158 -1158.69 95 132 137
486.359 445.916 -1158.52 115 134 133
965.791 331.264 -1149.65 146 166 161
496.088 91.5206 -1155.33 129 160 155
500.513 455.866 -1156.89 108 132 129
726.332 435.333 -1153.98 124 154 153
810.558 381.255 -1154.55 132 171 174
796.515 240.883 -1153.48 145 162 161
745.912 31.2681 -1152.31 153 175 171
430.868 91.2938 -1155.27 123 154 152
581.041 196.463 -1104.44 29 37 28
235.871 215.922 -1159.34 83 131 133
511.281 456.295 -1157.43 115 134 135
831.716 345.159 -1153.46 130 151 150
515.733 455.987 -1157.44 109 150 158
920.16 350.789 -1148.84 146 157 157
569.902 295.211 -1101.64 31 36 24
470.283 421.233 -1158.61 107 131 126
454.416 256.307 -1027.33 58 62 52
566.115 450.947 -1157 92 98 90
780.856 285.894 -1152.2 95 112 106
905.796 396.178 -1150.51 144 164 157
773.903 279.338 -1153.44 127 142 139
525.759 376.013 -1146.08 32 30 13
610.446 445.89 -1156.67 103 144 145
345.95 36.0255 -1157.27 110 168 171
764.983 432.639 -1152.9 133 172 165
951.118 355.801 -1148.99 144 158 157
610.269 281.227 -1109.98 24 33 22
680.39 366.228 -1154.95 115 146 141
791.055 156.364 -1152.84 144 162 156
769.703 431.799 -1153.51 129 163 164
806.037 81.0593 -1152.66 147 172 168
555.1 300.893 -1153.67 28 69 76
490.491 340.682 -1157.65 90 136 137
850.036 210.825 -1153.65 103 120 114
927.31 262.635 -1154.09 147 165 168
781.396 431.302 -1153.01 136 173 172
306.118 165.863 -1157.52 109 141 143
180.711 131.128 -1160.03 93 140 141
790.367 430.626 -1154.13 128 165 163
969.074 346.134 -1149.36 142 161 159
724.302 91.0887 -1153.83 149 165 162
324.487 261.405 -1157.71 84 135 131
825.687 90.9904 -1151.62 145 173 171
655.151 288.037 -1093.91 92 82 57
727.279 361.529 -1153.5 120 153 152
445.804 65.7746 -1155.44 124 159 157
568.464 358.925 -1156.16 29 73 78
150.735 355.113 -1163.38 87 133 137
820.888 425.87 -1151.76 131 162 159
495.563 452.001 -1157.2 99 137 138
340.933 281.279 -1160.9 78 125 122
645.931 286.127 -1094.8 35 38 26
592.363 148.786 -1133.89 36 48 40
825.546 426.032 -1152.12 132 154 157
870.684 421.232 -1152.02 142 169 163
877.26 422.954 -1153.38 144 164 157
545.334 345.763 -1131.62 21 25 15
878.375 422.954 -1153.58 144 164 157
570.871 186.456 -1124.86 30 33 25
195.846 106.286 -1160.91 101 146 148
292.746 242.335 -1157.95 110 140 143
405.33 286.19 -1158.5 85 130 124
920.777 416.025 -1150.13 144 164 157
500.87 1.23536 -1154.34 128 159 158
437.186 459.899 -1158.04 100 122 121
281.375 150.936 -1157.55 114 143 147
790.594 406.055 -1154 133 169 167
551.035 171.321 -1158.58 30 82 85
820.717 275.804 -1154.15 142 161 163
600.477 70.8667 -1153.81 131 166 165
490.753 436.331 -1156.77 101 142 146
754.485 235.967 -1153.06 134 154 153
855.343 446.097 -1152.37 138 181 177
756.609 380.448 -1153.64 122 155 156
732.49 160.077 -1153.04 142 174 169
193.069 116.999 -1158.15 95 143 144
586.02 286.027 -1112.19 25 27 16
800.868 111.038 -1151.05 148 172 170
635.324 21.7215 -1153.37 143 163 161
275.648 475.482 -1159.45 109 131 138
736.095 421.071 -1152.82 128 160 159
484.504 339.674 -1096.32 75 92 82
310.958 474.04 -1158.12 93 130 131
890.577 176.087 -1152.05 143 167 164
335.734 471.64 -1160.25 103 126 128
390.91 465.611 -1159.73 101 129 136
842.412 364.793 -1153.5 126 172 173
299.492 276.123 -1158.03 80 125 123
441.824 460.783 -1157.84 107 125 116
319.594 68.8527 -1158.63 125 154 162
310.97 391.218 -1159.32 85 142 147
530.661 445.675 -1156 105 154 156
491.04 456.011 -1156.86 109 133 132
575.724 290.975 -1111.81 24 26 15
590.61 401.226 -1155.24 93 116 127
760.945 125.975 -1154.1 140 167 165
221.107 385.987 -1161.07 69 117 118
835.615 356.168 -1150.79 131 159 159
575.891 40.9252 -1154.73 131 166 165
540.765 451.236 -1156.6 104 148 156
565.8 -17.4432 -1155.06 130 177 177
605.957 445.807 -1156.81 105 149 157
723.029 309.317 -1152.59 116 140 128
356.008 75.3 -1158.7 122 155 153
255.381 112.116 -1158.1 103 141 139
703.187 440.288 -1153.09 138 181 177
640.415 441.033 -1154.74 119 148 150
540.73 216.253 -1155.16 39 84 86
931.377 411.314 -1147.7 144 164 157
601.032 185.556 -1116.52 27 37 26
461.518 435.994 -1157.59 105 137 131
235.998 171.067 -1159.27 90 136 135
650.546 441.406 -1156.4 110 138 140
635.686 265.792 -1099.79 30 35 26
446.029 386.452 -1159.04 98 123 120
650.485 160.443 -1135.33 38 41 35
655.56 441.279 -1156.12 120 146 147
335.689 406.069 -1160.66 89 138 144
401.018 436.239 -1158.72 100 129 133
380.656 430.946 -1159.4 97 131 138
785.741 391.282 -1153.73 128 158 162
760.86 245.284 -1154.04 122 136 130
656.143 271.953 -1109.11 36 49 37
270.934 221.123 -1159.78 91 133 135
700.97 436.283 -1155.17 113 131 128
705.929 436.022 -1154.63 110 131 133
491.274 240.647 -1074.73 46 52 40
750.66 430.778 -1153.97 130 152 151
795.427 135.238 -1153.35 147 176 174
755.281 431.091 -1152.57 131 169 168
558.937 142.661 -1148.03 71 91 104
557.296 256.59 -1084.49 29 40 27
650.467 350.942 -1149.75 121 172 168
955.837 385.87 -1148.65 144 164 157
740.826 41.3599 -1151.81 148 174 170
350.874 310.566 -1159.17 78 118 113
756.176 430.518 -1153.93 118 142 147
945.806 115.7 -1149.44 155 171 168
965.101 229.271 -1148.56 145 165 162
850.741 371.193 -1151.02 133 161 160
810.625 426.134 -1154.35 129 150 156
530.38 225.714 -1155.93 41 89 90
730.951 385.766 -1152.97 117 135 133
205.752 165.935 -1159.85 83 130 129
260.666 361.098 -1161.17 86 126 126
520.399 250.563 -1156.74 42 86 88
814.89 426.138 -1153.72 137 161 166
578.036 238.889 -1108.75 25 30 20
350.378 241.022 -1158.84 89 137 134
816.04 425.982 -1152.12 127 166 167
430.429 436.245 -1157.62 97 130 128
920.659 380.955 -1151 144 164 157
495.937 440.9 -1159.26 108 127 124
910.817 415.931 -1149.63 144 164 157
745.776 235.964 -1152.54 128 144 139
476.036 336.159 -1159.27 95 132 126
265.942 475.765 -1161.69 112 132 139
456.188 425.855 -1158.95 106 136 132
520.906 451.053 -1156.78 109 151 161
495.64 136.532 -1152 138 153 148
475.969 410.906 -1156.56 107 133 132
280.699 474.608 -1159.89 107 131 139
305.862 473.09 -1158.24 105 132 143
510.516 341.116 -1116.56 29 30 19
310.981 471.2 -1157.87 92 129 132
554.778 427.902 -1158.46 103 152 167
296.859 166.273 -1158.56 94 139 136
670.463 416.073 -1155.66 117 150 148
419.581 5.32615 -1158.83 136 156 156
855.956 375.833 -1150.23 135 164 163
425.733 390.575 -1159.27 98 135 138
800.302 220.974 -1152 87 103 97
380.423 181.082 -1157.37 103 139 137
315.591 470.482 -1157.58 106 126 131
339.303 166.147 -1157.89 96 141 142
741.734 381.534 -1152.61 114 136 135
525.4 451.129 -1156.42 106 148 156
430.491 425.381 -1158.94 97 134 131
426.36 -3.62682 -1156.55 123 161 160
680.354 375.87 -1155.2 117 153 153
655.485 366.119 -1155.39 108 132 128
680.465 256.875 -1084.41 144 134 105
800.515 295.984 -1152.95 94 107 102
375.754 466.012 -1159.39 103 128 141
850.735 296.466 -1151.19 122 142 139
421.345 461.168 -1159.21 105 132 130
475.849 0.928026 -1155.17 131 165 164
555.873 251.095 -1106.26 28 30 22
294.926 121.356 -1158.58 110 144 144
955.92 411.087 -1151.05 144 164 157
915.904 267.648 -1148.01 149 169 171
365.699 386.265 -1159.83 87 139 149
425.761 461.424 -1159.54 96 128 134
710.771 105.758 -1151.96 146 172 166
430.502 461.205 -1159.4 100 126 121
936.429 261.378 -1150.31 143 163 162
905.759 320.939 -1151.3 140 164 166
434.421 153.725 -1158.28 107 153 148
506.504 455.049 -1158.71 106 132 130
523.77 267.167 -1098.16 39 41 30
960.734 310.833 -1149.37 147 164 162
361.427 102.103 -1158.65 109 154 152
400.449 -3.62018 -1156.22 130 159 160
510.404 456.166 -1159.16 109 142 137
952.68 390.187 -1148.41 144 164 157
645.68 195.566 -1153.56 120 143 138
451.323 321.196 -1158.71 89 130 125
335.709 416.385 -1161.26 86 139 148
380.87 376.85 -1157.08 104 124 123
660.797 260.962 -1090.85 39 47 36
960.619 146.01 -1149.39 155 165 163
661.885 31.5427 -1152.98 139 156 152
796 295.867 -1152.63 103 115 109
961.067 401.024 -1150.1 144 164 157
567.234 144.242 -1128.77 36 47 39
176.143 215.762 -1159.76 84 132 134
375.697 411.011 -1159.87 98 134 140
721.255 244.449 -1152.53 127 140 133
416.738 400.924 -1158.49 106 130 129
505.68 401.239 -1157.14 112 141 142
295.854 121.089 -1157.91 104 144 143
572.629 450.93 -1158.46 88 114 115
590.633 446.306 -1156.37 99 143 155
680.498 390.926 -1155.22 117 134 129
786.263 425.963 -1153.69 129 162 161
965.768 410.892 -1151.17 144 164 157
276.625 205.137 -1157.91 88 136 134
291.365 470.937 -1160.25 110 136 142
505.969 390.84 -1152.06 96 146 159
675.402 20.9997 -1152.9 147 167 163
295.741 465.659 -1159.5 109 129 135
636.034 171.579 -1153.5 118 144 139
820.783 405.675 -1150.51 131 164 161
470.751 375.94 -1157.41 97 133 130
474.426 314.693 -1066.36 54 51 33
890.544 91.2688 -1149.28 158 177 177
595.413 446.011 -1156.41 102 154 163
558.173 249.104 -1084.01 32 42 30
515.86 430.953 -1156.68 111 152 160
595.167 447.736 -1158.48 105 115 121
850.702 225.9 -1151.51 118 135 132
620.826 440.845 -1155.47 109 145 147
676.822 208.115 -1107.4 46 66 51
631.033 440.98 -1155.79 118 145 146
360.742 331.606 -1160.13 89 124 119
462.124 345.544 -1158.08 92 136 129
685.469 436.155 -1154.73 123 145 140
956.062 171.149 -1150.87 147 165 163
531.138 386.173 -1154.74 86 118 110
555.657 206.521 -1111.72 30 34 23
875.838 286.197 -1150.19 113 133 128
794.625 426.293 -1152.8 128 150 150
620.711 435.806 -1156.47 107 142 143
477.942 250.84 -1059.04 51 56 44
852.112 386.491 -1151.76 131 167 168
400.693 113.386 -1158.33 121 157 153
556.087 337.15 -1128.84 22 23 11
610.809 231.153 -1107.11 26 34 23
750.562 232.008 -1152.98 124 141 139
475.492 437.093 -1158.68 108 134 132
750.767 141.117 -1152 142 170 167
895.75 250.876 -1150.69 139 160 160
783.031 428.543 -1154.03 128 138 152
644.347 158.714 -1152.93 127 152 147
476.082 300.983 -1061.01 41 40 24
659.045 319.429 -1120.59 33 53 50
430.434 331.224 -1157.71 92 136 132
800.614 426.236 -1154.06 128 158 158
475.668 81.1227 -1155.91 125 161 159
346.414 466.629 -1158.79 104 131 129
715.743 416.036 -1154.43 126 155 152
950.92 397.96 -1148.6 144 164 157
265.877 76.071 -1159.83 114 155 158
679.997 414.888 -1152.62 111 128 125
355.994 155.921 -1157.47 104 144 142
800.96 116.046 -1152.15 143 172 169
580.539 71.0147 -1154.79 132 163 162
730.059 246.263 -1085.93 34 51 35
805.891 426.419 -1154.75 124 157 163
848.859 423.996 -1153.96 122 153 155
300.386 136.336 -1158.83 109 148 153
890.669 415.929 -1150.24 144 164 157
600.91 76.4967 -1154.45 139 164 161
588.068 93.7907 -1153.16 133 150 151
460.87 16.0438 -1156.04 131 163 161
575.599 441.003 -1155.08 96 118 119
895.508 415.819 -1151.13 144 164 157
865.826 416.023 -1151.8 141 173 167
796.017 196.064 -1154.27 102 114 109
633.55 111.023 -1153.06 139 157 152
415.982 355.264 -1158.78 99 124 120
310.145 98.841 -1157.96 117 156 155
256.628 475.676 -1162.42 128 138 137
856.175 356.141 -1151.77 133 164 163
295.652 471.056 -1159.74 109 128 135
660.557 401.074 -1155.75 121 143 147
675.608 400.95 -1155.45 118 146 150
825.816 196.472 -1153.73 96 113 108
560.818 60.8925 -1152.55 145 161 157
295.804 416.029 -1159.78 92 134 132
300.102 470.989 -1159.25 98 133 130
495.095 36.1697 -1152.74 119 168 164
825.463 276.412 -1152.06 104 122 120
840.862 330.924 -1152.2 128 160 158
965.497 356.106 -1150.5 144 159 159
465.978 41.0857 -1156.09 131 162 161
815.756 277.053 -1152.4 75 91 85
640.717 75.8123 -1154.14 139 167 165
946.757 46.1045 -1148.47 158 177 177
370.857 465.646 -1160.33 112 129 140
543.641 335.165 -1105.8 83 74 53
860.388 476.667 -1153.91 138 181 177
601.143 46.2454 -1153.71 137 165 163
255.893 261.306 -1161.27 77 128 127
751.096 406.412 -1153.48 124 132 134
820.91 320.632 -1152.1 115 130 123
415.887 461.243 -1159.45 112 132 130
326.218 145.823 -1158.74 109 139 143
461.38 455.63 -1157.44 109 127 118
601.087 396.033 -1155.33 115 152 154
901.009 181.225 -1151.99 155 169 164
485.568 190.83 -1155.98 81 128 127
932.642 390.951 -1147.92 144 164 157
791.012 186.297 -1154.07 79 94 83
765.485 382.024 -1153.58 126 148 149
540.574 431.099 -1155.92 104 148 156
521.01 216.244 -1100.04 47 51 40
884.411 190.003 -1153.59 122 146 139
142.725 167.637 -1158 85 133 141
321.511 10.7766 -1157.58 128 154 151
735.978 401.276 -1152.55 128 157 156
599.437 320.701 -1120.9 22 27 18
915.883 201.026 -1151.73 151 168 169
395.967 120.975 -1156.91 117 151 149
455.713 125.852 -1156.62 120 156 154
565.741 21.016 -1154.89 135 167 165
401.034 191.284 -1157.55 102 148 142
711.084 90.3325 -1153.06 139 177 176
465.449 455.497 -1157.92 107 124 112
385.255 451.416 -1157.61 97 125 123
330.902 411.072 -1160.22 87 136 141
449.491 457.192 -1158.18 108 123 120
470.401 161.258 -1156.3 103 148 142
955.601 246.302 -1149.29 151 168 165
470.766 455.577 -1158.88 109 129 122
301.018 300.943 -1159.23 99 137 137
745.813 336.224 -1152.65 116 148 146
524.527 319.788 -1113.53 31 32 21
475.867 455.617 -1159.68 108 131 128
808.362 399.747 -1153.42 117 141 153
518.611 100.848 -1158.43 113 160 159
820.658 246.365 -1151.37 114 126 118
502.137 454.796 -1158.32 106 124 118
631.243 207.639 -1107.54 66 68 53
495.429 386.233 -1155.91 102 149 152
480.023 405.01 -1157.81 106 143 144
650.577 254.099 -1093.11 37 44 36
464.667 236.605 -1041.68 52 57 47
570.575 445.929 -1156.54 94 122 124
955.864 390.726 -1148.97 144 164 157
511.255 450.801 -1157.2 113 138 138
665.495 200.942 -1154.69 126 149 143
708.819 257.33 -1153.13 110 130 124
610.66 435.996 -1155.96 105 143 145
531.175 450.495 -1158.83 101 144 155
855.814 140.934 -1151.9 145 171 169
430.829 246.179 -1157.12 82 129 123
581.149 357.21 -1145.17 38 38 22
635.832 176.76 -1153.54 122 147 142
530.797 45.9964 -1154.72 132 166 163
525.806 315.798 -1156.7 40 80 77
580.487 396.389 -1154.81 109 154 163
570.543 245.553 -1091.49 29 38 27
775.741 40.9574 -1151.94 150 176 175
530.684 362.008 -1139.66 25 27 16
730.594 46.1082 -1151.81 153 173 169
934.019 151.258 -1148.16 154 168 164
890.609 405.87 -1150.06 142 166 159
724.224 189.271 -1152.8 134 150 141
578.594 448.357 -1158.6 83 59 43
305.787 31.0357 -1157.99 118 154 154
506.559 189.55 -1104.06 48 52 42
947.904 293.719 -1147.56 146 168 169
691.065 360.829 -1154.8 121 155 154
320.854 0.56447 -1159.31 127 154 150
580.77 446.083 -1156.14 99 125 133
506.448 225.76 -1089.9 45 48 36
770.072 317.417 -1153.62 111 123 116
365.783 395.88 -1160 83 142 155
615.571 441.421 -1156.35 109 152 155
305.614 355.942 -1159.54 88 129 128
356.593 41.0111 -1157.54 116 156 160
665.397 435.971 -1154.26 120 140 138
230.769 350.883 -1161.37 73 121 122
815.847 110.741 -1152.47 144 174 174
875.923 106.097 -1151.56 152 177 175
605.863 321.14 -1116.63 30 30 15
669.641 435.224 -1152.82 112 126 125
265.909 396.128 -1160.48 82 128 129
404.787 416.977 -1157.93 101 129 130
720.559 311.507 -1154.49 107 131 124
809.357 226.087 -1153.49 65 82 73
906.156 90.8001 -1151.71 158 177 177
604.435 212.377 -1108.24 29 37 26
621.217 171.094 -1153.99 119 143 141
685.441 321.393 -1154.03 98 134 138
671.128 436.52 -1154.39 115 152 150
755.808 406.369 -1154.21 115 139 144
411.41 375.895 -1157.99 95 143 149
680.546 435.766 -1154.64 120 145 144
640.56 371.127 -1154.71 110 143 139
320.021 266.408 -1159.43 80 128 125
836.201 300.543 -1151.88 110 123 120
610.285 410.926 -1155.7 104 150 156
442.323 -12.0508 -1156.4 142 160 160
690.997 435.234 -1153.03 106 131 125
432.87 34.4487 -1158.29 139 169 163
470.78 451.534 -1159.11 106 133 128
305.845 86.02 -1159.02 109 148 145
650.871 256.178 -1094.03 37 43 34
520.866 285.818 -1099.06 36 37 23
549.898 394.613 -1158.62 97 149 165
270.86 66.2631 -1158.99 118 155 155
650.016 35.5434 -1152.92 145 159 155
620.459 8.0659 -1151.01 144 155 149
510.598 296.097 -1095.8 34 36 26
280.934 16.5839 -1160.26 122 159 159
785.936 290.878 -1152.63 124 138 138
727.086 431.231 -1152.87 108 128 131
470.547 371.796 -1157.38 101 139 135
750.57 421.628 -1153.66 137 176 172
295.601 10.3962 -1157.65 115 155 156
770.982 426.103 -1152.51 124 157 157
607.466 216.243 -1110.48 29 35 26
840.694 421.178 -1151.89 136 173 170
720.522 205.277 -1152.15 133 147 143
780.903 426.1 -1152.52 131 158 162
470.555 407.017 -1157.83 112 129 119
520.62 85.9506 -1155.7 128 157 153
600.63 60.8376 -1154.6 135 169 168
336.87 427.824 -1157.61 98 125 128
785.621 425.895 -1152.54 127 156 158
500.802 435.597 -1156.77 108 136 133
835.983 422.021 -1152.43 137 164 165
281.109 125.763 -1159.35 106 146 146
880.645 406.125 -1152.27 140 170 164
600.311 36.0039 -1152.71 131 174 170
727.807 290.522 -1153.43 118 134 131
849.277 421.286 -1153.98 123 154 158
780.363 280.245 -1153.56 133 147 147
600.924 200.96 -1116.91 30 36 26
615.84 335.797 -1155.09 70 90 86
675.253 116.089 -1152.91 141 157 153
945.953 411.127 -1150.15 144 164 157
431.507 401.226 -1158.05 101 127 127
535.777 310.834 -1111.51 28 30 19
355.929 451.106 -1160.52 107 131 127
760.217 310.903 -1152.84 90 108 105
446.241 325.981 -1158.72 90 132 126
840.908 115.932 -1151.25 141 175 173
855.985 390.988 -1150.64 135 161 162
835.607 211.163 -1152.01 141 155 154
300.613 331.051 -1159.86 89 124 122
446.007 430.706 -1156.27 113 129 121
321.03 41.0423 -1157.79 120 157 156
795.815 45.745 -1151.83 148 169 167
396.54 220.705 -1157.69 96 145 136
331.248 465.713 -1158.76 93 125 133
260.686 136.131 -1159.09 101 143 145
685.828 411.052 -1154.65 122 145 140
955.873 290.716 -1150.23 145 163 161
336.273 467.489 -1158.77 100 125 127
460.549 426.457 -1158.66 100 136 128
555.622 346.326 -1154.09 37 81 86
444.103 261.293 -1017.05 96 80 61
636.519 156.798 -1137.43 95 97 78
275.7 40.7169 -1158.96 118 160 158
440.819 455.761 -1156.94 107 124 116
330.506 -8.63101 -1158.52 123 152 153
475.625 51.2803 -1156.16 134 166 164
805.907 390.789 -1150.98 121 154 162
781.06 96.1371 -1152.37 146 175 173
542.188 62.233 -1153.2 138 158 155
325.818 10.9099 -1157.06 120 161 160
765.763 406.233 -1154.69 122 153 145
451.006 455.639 -1158.65 114 131 129
501.518 451.12 -1158.41 106 124 119
541.88 170.572 -1105.24 24 65 70
184.828 200.969 -1159.51 91 143 141
927.909 280.606 -1147.9 138 167 168
650.534 311.24 -1153.96 83 108 104
140.698 396.123 -1161.35 81 137 144
336.073 401.332 -1160.09 86 139 146
505.315 452.404 -1158.55 108 130 126
505.856 450.693 -1157.82 109 136 135
494.816 236.415 -1077.04 46 51 38
731.824 426.442 -1152.99 122 146 148
515.578 1.07782 -1154.93 135 170 170
741.048 36.1081 -1151.71 148 169 166
310.496 306.219 -1161.27 89 127 124
665.65 370.829 -1154.5 114 150 148
941.029 401.06 -1149.87 144 164 157
800.579 233.052 -1153.06 142 155 150
450.637 346.394 -1160.07 97 135 128
326.068 171.218 -1157.44 94 138 137
565.489 446.071 -1155.77 116 157 156
540.677 311.3 -1114.85 27 28 18
780.542 150.877 -1151.96 140 170 168
295.197 205.278 -1158.01 89 132 130
756.287 190.53 -1153.59 139 154 146
665.634 361.49 -1155.68 108 134 134
297.884 210.325 -1157.84 107 139 142
526.18 441.301 -1157.06 106 148 155
660.815 436.019 -1154.68 118 139 142
710.812 360.897 -1154.68 119 151 147
666.418 435.096 -1152.95 120 130 130
481.011 325.911 -1080.41 42 47 30
260.814 340.82 -1161 90 126 125
780.728 421.184 -1152.16 130 153 159
811.793 426.219 -1152.78 138 177 175
325.607 340.853 -1159.66 90 127 125
921.015 86.2462 -1151.79 158 177 177
656.262 141.786 -1152.53 137 168 166
632.156 291.143 -1266.04 24 74 82
511.146 441.226 -1157.13 113 141 140
630.827 236.03 -1102.42 32 37 28
380.664 151.213 -1157.71 109 145 142
309.198 -12.1713 -1158.82 123 152 152
640.961 330.614 -1154.7 82 104 100
735.282 130.599 -1153.75 139 170 166
544.868 207.756 -1113.05 28 36 25
336.374 181.152 -1159.13 107 135 137
311.898 142.642 -1158.03 104 143 138
820.737 420.851 -1150.9 127 153 152
240.437 206.197 -1158.94 81 126 125
775.817 131.218 -1154.54 144 157 151
826.054 420.928 -1152.12 132 156 158
520.879 302.121 -1103.87 35 36 25
315.324 440.296 -1157.87 108 128 133
311.361 439.788 -1157.68 93 130 132
655.814 311.378 -1121.81 25 35 25
846.133 421.004 -1154.61 131 154 151
550.773 421.505 -1156.63 111 148 155
870.835 115.976 -1151.11 150 177 172
875.8 416.133 -1151.78 142 170 164
441.008 90.9171 -1155.25 123 156 152
385.525 430.397 -1157.86 98 127 125
880.643 416.203 -1151.83 142 169 163
935.378 51.197 -1146.61 158 177 177
665.598 406.003 -1155.15 122 142 140
882.325 417.931 -1153.26 144 164 157
210.727 295.847 -1160.19 79 131 135
915.004 410.645 -1147.85 144 164 157
700.742 131.293 -1153.77 143 169 164
621.793 251.076 -1102.31 27 31 22
782.41 236.372 -1152.91 131 149 149
335.826 175.766 -1156.7 105 137 139
596.157 40.6239 -1153.62 130 178 176
710.289 441.079 -1152.04 138 181 177
922.458 411.496 -1148.15 144 164 157
317.041 416.274 -1157.5 108 126 131
350.983 435.949 -1160.47 83 136 144
925.688 410.949 -1148.72 144 164 157
520.596 310.477 -1154.09 41 83 81
260.949 351.059 -1161.5 83 126 127
735.818 125.546 -1153.03 141 174 167
460.661 367.593 -1158.49 101 136 130
756.298 231.486 -1152.74 126 144 144
435.718 446.098 -1159.66 97 132 134
929.654 410.622 -1149.05 144 164 157
301.029 6.59375 -1158.86 115 152 153
845.777 311.36 -1150.45 112 135 134
280.402 471.295 -1162.12 107 130 137
968.884 368.041 -1148.22 142 158 149
310.982 466.018 -1159.06 95 129 132
811.204 366.214 -1152.14 128 160 162
545.607 386.382 -1154.23 69 96 89
305.571 82.0512 -1158.47 109 149 148
656.409 300.963 -1153.03 79 99 91
930.909 336.13 -1150.04 146 162 157
935.946 386.058 -1148.5 144 164 157
316.26 466.352 -1159.29 106 124 129
880.829 246.17 -1149.8 113 130 124
641.625 311.941 -1152.79 77 99 94
634.838 271.095 -1099.03 29 34 25
806.178 290.909 -1152.3 102 116 114
600.999 440.791 -1156.11 115 147 146
326.303 465.825 -1158.79 106 124 137
685.618 301.505 -1154.52 100 121 117
570.995 400.748 -1155.81 96 126 129
375.344 461.046 -1160.7 102 128 140
969.382 281.375 -1150.03 141 169 169
960.569 395.855 -1149.85 144 164 157
165.706 336.222 -1160.99 82 131 133
386.009 461.447 -1159.91 97 128 129
205.63 340.768 -1159.8 74 125 124
805.922 286.27 -1152.08 107 125 122
375.862 176.068 -1157.08 104 139 135
555.984 146.279 -1145.41 64 59 42
649.913 265.806 -1094.51 39 44 34
490.918 396.204 -1155.12 103 140 141
391.008 461.017 -1160.45 100 129 134
490.859 430.366 -1158.79 114 130 127
830.266 346.555 -1152.27 128 158 160
270.911 440.469 -1161.34 123 135 145
775.837 385.963 -1152.56 126 155 157
730.656 111.447 -1153.86 153 168 161
321.053 86.0808 -1157.59 112 150 148
136.276 351.037 -1161.05 75 134 136
856.01 406.027 -1150.33 135 161 162
501.124 425.843 -1157.35 106 137 133
292.746 233.59 -1157.95 108 138 143
495.802 65.9542 -1155.54 127 162 160
635.838 325.798 -1154.9 73 99 94
742.272 276.276 -1152.94 128 144 140
950.935 196.298 -1150.97 153 169 167
403.81 460.419 -1158.24 104 123 123
555.414 336.522 -1154.1 30 75 77
446.428 455.222 -1158.65 111 127 120
495.563 410.57 -1158.92 108 132 130
490.784 450.767 -1158.94 114 130 126
181.275 111.287 -1160.24 99 144 144
716.135 259.206 -1092.54 46 58 36
736.394 396.353 -1152.64 123 150 150
626.118 291.479 -1115.54 26 34 19
730.103 351.038 -1154.02 113 131 125
275.83 36.2583 -1158.7 118 160 159
275.714 371.294 -1160.5 86 128 130
360.978 461.491 -1159.69 104 123 125
665.445 210.889 -1155.45 121 146 140
675.296 211.395 -1106.35 42 61 49
490.898 451.055 -1156.38 100 142 146
735.5 196.004 -1154.15 139 151 145
790.069 416.227 -1151.81 128 166 164
520.832 449.563 -1158.57 112 150 162
855.895 106.026 -1152.23 152 177 175
968.884 380.331 -1148.22 144 164 157
850.768 415.737 -1151.31 134 161 164
540.385 445.964 -1156.83 103 148 156
480.867 441.091 -1156.93 106 142 144
925.71 211.225 -1150.59 152 165 159
516.067 221.089 -1157.59 47 93 95
270.78 430.956 -1161.49 88 126 130
880.615 235.966 -1150.84 114 139 134
715.872 420.846 -1154.93 119 140 136
941.156 366.063 -1149.33 140 156 155
800.861 360.699 -1153.94 118 148 152
597.391 180.228 -1152.78 68 65 49
305.191 115.167 -1158.13 122 151 154
585.888 441.098 -1155.68 93 126 139
315.65 261.072 -1159.4 80 129 126
590.798 441.035 -1155.08 95 126 137
595.881 440.908 -1155.76 106 148 157
761.035 345.883 -1153.92 123 156 153
386.07 151.047 -1156.88 106 146 142
215.476 155.991 -1159.99 89 131 132
650.589 436.219 -1155.94 118 148 150
860.759 416.067 -1151.46 138 166 161
901.012 411.014 -1150.06 144 164 157
885.856 411.267 -1151.81 142 169 164
910.637 410.712 -1149.19 144 164 157
815.993 300.965 -1152.52 85 99 93
915.553 305.99 -1149.74 137 162 162
911.529 412.229 -1147.75 144 164 157
510.987 401.232 -1156.14 113 142 141
691.563 316.98 -1153.13 107 131 127
465.996 426.396 -1159.03 109 135 128
835.681 376.043 -1151.67 126 156 160
917.703 410.34 -1148.33 144 164 157
790.515 370.834 -1152.21 122 156 158
254.697 474.09 -1163.43 123 135 137
920.582 45.9902 -1149.35 158 177 177
930.675 375.924 -1150 144 164 156
305.726 316.146 -1159.75 86 124 121
665.835 125.995 -1154.71 138 169 167
300.831 466.346 -1159.52 100 132 131
741.242 156.79 -1152.68 141 168 163
886.008 156.116 -1150.63 154 168 167
270.891 40.9057 -1159.72 122 158 157
650.404 55.5623 -1152.62 145 159 155
305.775 465.83 -1159.09 103 133 143
481.838 255.666 -1060.06 46 51 39
468.061 300.866 -1049.25 54 38 11
660.44 381.113 -1154.71 115 146 143
880.672 316.23 -1150.13 110 123 121
341.245 462.11 -1157.51 113 133 130
911.133 386.17 -1150.97 144 164 157
597.961 228.116 -1103.29 26 34 23
631.285 292.957 -1262.47 28 75 83
720.031 424.791 -1153.17 132 171 168
130.879 61.0444 -1159.45 111 156 157
346.046 461.73 -1157.3 106 132 129
276.114 314.855 -1158.12 75 122 119
885.609 150.98 -1151.59 154 167 163
765.703 421.015 -1151.89 125 157 150
505.932 345.937 -1156.53 93 135 129
350.664 461.752 -1157.56 104 131 128
375.999 166.241 -1157.15 106 141 138
535.75 176.431 -1120.77 31 36 26
565.381 441.202 -1158.3 74 53 38
814.17 267.217 -1153.68 139 157 156
351.991 460.113 -1159.46 97 131 126
365.957 460.832 -1160.16 107 133 137
665.161 307.663 -1118.49 47 50 26
895.675 400.988 -1150.54 144 164 157
370.6 460.941 -1160.98 112 129 140
390.087 391.825 -1157.86 109 141 148
310.952 260.888 -1159.44 79 129 128
325.722 436 -1159.93 88 135 145
495.872 230.924 -1079.66 50 53 41
411.033 456.607 -1158.65 92 132 124
434.329 355.817 -1157.52 97 132 125
416.333 456.744 -1159.1 112 133 130
250.955 336.05 -1161.03 73 121 121
669.92 23.9667 -1153.38 140 160 157
415.897 0.817329 -1156.75 127 161 158
420.854 455.957 -1159.22 104 131 130
339.077 296.709 -1157.98 82 127 121
510.673 270.939 -1086.59 38 42 31
564.017 264.426 -1107.29 24 26 15
265.336 420.978 -1161.17 95 131 132
427.576 187.798 -1158.45 97 149 143
453.065 253.324 -1028.83 61 62 53
796.441 265.547 -1153.82 136 154 151
490.369 349.109 -1106.49 100 125 115
660.464 420.802 -1155.64 121 145 148
505.178 315.569 -1101.03 32 34 22
425.729 456.344 -1159.06 96 128 134
430.417 454.927 -1157.86 99 125 123
420.925 340.674 -1156.94 91 131 123
881.195 360.25 -1148.06 132 168 163
234.705 51.5575 -1157.99 103 153 152
640.249 361.154 -1154.25 108 130 126
472.238 196.289 -1076.13 109 125 124
480.821 451.055 -1159.22 107 129 125
725.632 45.9275 -1152.16 153 176 171
885.706 406.105 -1151.28 140 170 164
485.622 451.393 -1159.58 117 133 129
557.578 310.796 -1118.34 24 26 15
355.82 425.916 -1160.34 87 137 143
406.483 445.78 -1158.99 107 133 133
870.791 465.476 -1150.62 138 181 177
585.583 405.913 -1155.31 96 126 139
750.755 351.175 -1152.35 123 165 162
550.821 355.866 -1140.35 23 25 15
580.989 441.073 -1155.96 95 110 117
795.858 401.46 -1152.36 127 155 154
725.418 410.568 -1153.01 110 131 133
830.61 407.124 -1153.54 132 152 160
880.794 131.178 -1152.08 149 178 176
968.881 337.432 -1149.57 133 153 150
519.655 369.344 -1138.05 37 31 7
636.166 436.384 -1156.22 118 145 144
921.247 351.645 -1147.94 145 160 157
915.865 196.039 -1150.94 151 167 166
305.937 235.682 -1159.59 96 140 141
690.571 431.1 -1154.23 132 159 153
406.123 411.38 -1159.69 101 132 133
511.211 366.724 -1134.28 62 58 32
895.496 390.875 -1149.81 144 164 157
143.983 44.8047 -1157.96 102 157 160
625.662 300.553 -1117.57 24 31 19
835.706 336.267 -1152.61 130 161 163
278.668 1.09165 -1158.52 131 166 167
736.386 426.306 -1152.84 122 147 148
560.806 426.059 -1156.6 111 149 154
741.416 426.236 -1152.71 119 142 149
799.906 396.284 -1152.83 120 145 150
326.56 179.506 -1158.79 85 138 138
290.755 456.765 -1158.62 102 137 140
594.743 276.053 -1109.15 25 27 18
745.344 425.855 -1153.79 131 159 162
155.748 135.804 -1160.05 89 140 144
851.125 186.353 -1153.91 52 68 60
905.823 286.196 -1150.58 146 165 163
390.901 370.675 -1160.05 98 133 130
747.077 425.977 -1152.77 126 139 146
880.733 306.176 -1150.89 112 135 131
560.909 141.217 -1155.96 44 90 93
311.14 450.946 -1159.42 97 129 132
595.59 340.46 -1131.26 67 62 40
786.014 421.324 -1152.21 120 145 149
330.732 195.719 -1158.57 99 136 141
790.769 420.96 -1152.24 122 146 147
790.852 165.778 -1152.76 138 168 163
776.194 355.778 -1151.95 127 160 156
795.849 421.013 -1152.39 127 157 156
845.478 255.871 -1151.68 132 153 151
805.512 421.812 -1154.02 119 153 161
485.522 165.938 -1156.8 101 147 145
809.677 421.074 -1153.6 128 158 162
940.616 406.107 -1147.44 144 164 157
801.001 301.043 -1152.48 99 112 108
956.176 406.124 -1150.17 144 164 157
969.341 405.833 -1150.24 144 164 157
670.434 320.83 -1155.25 92 127 130
705.966 425.755 -1154.7 117 144 144
256.655 470.228 -1162.56 128 138 137
315.324 419.339 -1157.87 102 127 131
710.707 235.944 -1155.43 124 143 139
711.226 305.59 -1153.56 111 132 131
260.001 472.113 -1163.35 123 137 128
236.615 76.0929 -1158.49 102 153 153
581.061 281.254 -1109.66 25 27 16
901.951 37.3907 -1148.6 158 177 177
469.827 309.696 -1052.82 133 134 126
146.002 345.657 -1161.33 77 133 136
335.949 460.34 -1159.31 101 125 127
477.155 417.757 -1158.99 107 130 126
401.573 456.068 -1159.42 104 123 123
445.887 76.2263 -1154.23 127 158 155
495.962 391.228 -1155.74 103 149 156
481.486 330.579 -1086.25 65 65 43
456.158 450.964 -1157.96 103 135 132
925.643 255.907 -1149.96 146 168 167
802.311 141.576 -1153.37 151 164 162
461.354 451.001 -1157.6 104 137 131
955.855 401.474 -1150.07 144 164 157
477.091 291.629 -1059.63 39 44 33
547.691 32.5687 -1153.15 137 160 156
636.313 426.002 -1155.16 119 143 143
270.608 376.38 -1160.64 81 128 130
370.359 280.755 -1159.03 80 133 132
905.918 145.933 -1151.29 161 170 167
466.736 451.283 -1159.39 111 131 121
475.387 451.441 -1159.2 108 133 130
420.869 156.105 -1156.28 108 145 140
506.041 446.382 -1157.1 109 138 138
810.918 405.762 -1151.69 134 158 160
576.017 376.047 -1155.3 96 114 108
271.062 180.373 -1157.47 92 138 141
510.989 1.21965 -1154.87 136 166 166
510.836 446.072 -1156.62 111 137 136
490.775 116.035 -1158.35 113 157 155
515.771 446.003 -1157.11 110 152 159
560.45 235.883 -1109.23 29 32 25
625.954 436.068 -1156.44 118 143 144
506.421 165.285 -1120.27 73 69 52
840.725 366.447 -1152.21 131 163 168
657.27 262.974 -1107.79 36 52 43
856.09 261.22 -1150.91 130 152 152
824.687 475.39 -1151.97 138 181 177
630.725 435.849 -1156.13 118 147 148
371.987 450.132 -1157.71 109 128 137
370.275 240.708 -1159.17 77 129 126
320.248 331.036 -1159.71 89 127 125
665.45 431.218 -1155.29 121 141 140
556.155 216.182 -1154.54 36 82 85
846.026 390.077 -1153.46 125 148 153
629.089 314.65 -1109.12 35 34 19
951.046 240.835 -1149.37 151 171 170
855.304 266.153 -1153.76 42 56 35
596.755 256.078 -1106.48 24 30 20
270.061 86.1932 -1159.06 112 147 149
668.695 432.982 -1153.16 118 126 125
491.484 235.776 -1075.41 47 52 40
471.875 221.538 -1158.71 78 127 122
457.192 262.314 -1158.08 56 110 105
675.527 431.627 -1155.55 119 142 146
551.287 165.571 -1156.44 46 94 98
900.879 381.061 -1150.14 144 164 157
232.866 111.398 -1158.1 100 147 144
781.05 416.272 -1151.83 132 158 162
462.609 270.536 -1039.26 48 55 46
551.08 31.2184 -1154.77 135 167 164
461.618 341.361 -1158.03 95 135 128
726.612 428.151 -1153.22 104 126 129
640.71 290.924 -1096.32 37 38 23
969.449 111.628 -1150.65 159 169 168
665.487 205.931 -1154.82 127 147 139
772.412 120.701 -1153.13 142 172 169
610.528 415.914 -1155.78 104 149 155
932.68 377.09 -1147.92 144 164 157
734.881 426.076 -1153.54 131 162 160
466.183 440.982 -1157.28 108 135 130
261.099 125.414 -1157.78 98 142 142
640.865 285.907 -1096.04 29 35 24
267.31 71.1201 -1158.05 110 150 150
665.52 325.812 -1154.32 95 121 117
951.129 346.045 -1150.07 142 163 159
775.877 421.055 -1152.25 129 157 159
971.556 147.488 -1153.76 160 168 166
620.777 66.0429 -1152.84 145 155 151
800.492 420.961 -1152.65 132 166 165
435.867 361.173 -1159.1 97 137 132
420.985 385.226 -1159.59 97 129 127
441.586 371.555 -1158.62 98 137 133
261.13 185.851 -1159.7 94 141 143
944.901 391.78 -1149.06 144 164 157
570.899 330.908 -1120.71 25 34 22
505.985 201.284 -1095.9 52 54 42
297.884 402.318 -1157.84 90 130 132
410.745 -9.13747 -1155.82 132 164 163
840.681 415.969 -1152.58 132 157 158
450.343 436.081 -1156.54 109 126 124
685.287 46.1077 -1152.6 150 168 165
261.034 266.28 -1160.33 84 129 129
385.767 366.184 -1159.5 97 132 127
287.23 245.999 -1158 106 136 146
845.408 418.023 -1153.69 128 151 152
375.481 26.1677 -1156.96 118 157 157
526.12 311.209 -1109.12 31 33 22
635.669 61.0041 -1152.79 147 164 162
332.574 352.836 -1157.87 116 137 143
845.725 415.62 -1152.05 134 169 165
370.637 386.393 -1160.14 93 137 152
896.03 411.14 -1152.04 144 164 157
900.658 86.0554 -1151.33 158 177 177
500.017 295.777 -1086.76 36 37 28
276.084 25.1769 -1157.55 113 159 156
370.478 311.6 -1159.47 89 130 126
904.195 409.435 -1147.98 144 164 157
220.584 115.801 -1159.24 103 146 145
931.37 405.883 -1147.69 144 164 157
610.54 340.973 -1155.54 70 94 89
275.902 466.06 -1160.06 107 131 137
350.758 421.067 -1160.72 87 136 141
835.028 191.236 -1152.17 81 102 97
280.903 465.988 -1160.03 107 131 139
626.324 341.258 -1139.08 74 81 59
499.186 359.954 -1121.85 45 50 39
600.696 176.506 -1120.52 30 39 30
515.788 421.109 -1156.78 110 152 160
640.564 121.059 -1154.46 133 165 162
515.813 380.895 -1145.2 57 53 42
285.405 465.588 -1160.29 111 136 131
595.844 420.956 -1156.7 102 148 156
795.869 336.009 -1151.72 122 152 151
725.909 146.085 -1152.6 141 171 165
616.2 305.784 -1109.81 26 28 19
360.849 430.822 -1160.58 91 138 144
380.894 445.531 -1159.73 97 130 136
429.325 223.798 -1158.08 95 141 134
771.799 400.876 -1152.73 127 161 162
331.292 460.65 -1159.05 93 125 133
559.733 216.063 -1087.34 27 37 26
380.935 456.463 -1159 105 129 132
370.991 442.453 -1157.53 108 129 136
411.055 175.799 -1156.39 104 139 137
761.384 110.576 -1153.26 146 161 156
386.43 457.821 -1158.56 97 129 128
326.259 86.563 -1159.09 118 148 153
727.807 286.278 -1153.43 112 132 126
939.744 92.9637 -1148.15 158 177 177
550.847 311.485 -1116.93 24 26 15
675.656 426.341 -1154.83 120 145 149
391.848 456.878 -1159.01 101 129 135
456.549 286.035 -1030.39 135 128 102
456.13 420.85 -1158.04 102 135 130
786.031 236.043 -1153.54 134 153 148
715.882 96.4252 -1152.18 150 167 163
395.859 456.124 -1159.89 102 132 130
375.571 75.8652 -1157.33 119 155 154
232.393 155.034 -1158.12 89 135 137
565.549 181.84 -1126.76 30 33 24
745.721 335.471 -1153.41 117 145 142
310.389 262.689 -1158.12 80 130 128
941.282 223.176 -1153.5 149 173 171
939.744 78.3307 -1148.15 158 177 177
128.4 382.977 -1163.3 70 138 137
411.137 454.615 -1157.91 97 132 126
285.805 350.967 -1160.81 83 125 123
510.867 157.749 -1127.87 93 84 62
414.68 454.563 -1158.13 117 130 127
668.215 265.116 -1102.76 28 48 33
520.798 325.323 -1156.05 55 97 97
875.64 246.079 -1150.07 105 121 115
951.059 265.93 -1151.04 142 167 167
391.324 450.5 -1158.84 100 128 136
475.114 235.991 -1056 50 57 46
626.103 331.405 -1155.62 74 98 94
489.944 315.509 -1086.46 35 36 23
426.831 454.3 -1158.24 91 130 137
331.614 135.665 -1158.82 111 139 141
553.169 49.3522 -1153.1 144 164 159
905.575 366.005 -1149.48 138 156 158
155.597 156.072 -1160.72 84 142 148
256.061 331.181 -1161.77 82 122 120
425.871 46.3116 -1156.17 126 161 159
730.629 411.447 -1154.7 128 158 156
260.96 420.992 -1160.63 97 129 127
615.401 346.358 -1157.41 74 96 88
601.35 429.537 -1158.55 112 124 114
431.124 451.035 -1157.16 99 127 124
295.741 106.372 -1157.54 111 149 148
745.75 381.136 -1152.34 114 137 135
476.001 310.701 -1155.63 85 126 124
340.775 -8.99435 -1157.79 122 157 160
490.646 431.292 -1157.05 102 141 145
345.847 55.9891 -1157.69 111 166 169
349.997 287.482 -1158.39 76 123 117
640.362 216.57 -1101.54 66 65 50
580.559 426.213 -1156.61 101 128 135
420.279 301.911 -1158.57 83 130 126
621.753 275.828 -1102.52 26 31 21
435.788 450.63 -1156.47 104 129 122
356.681 341.88 -1158.06 103 132 129
444.725 450.527 -1157.64 107 131 126
790.564 361.356 -1151.44 125 159 159
415.248 141.069 -1157.14 110 149 145
585.914 110.853 -1153.8 136 152 150
275.643 26.8403 -1159.73 122 160 160
599.741 235.05 -1108.51 27 32 22
370.359 250.686 -1159.78 81 130 127
721.48 371.637 -1152.95 131 179 175
690.902 425.876 -1154.28 129 156 151
326.894 316.141 -1158.95 82 124 120
700.968 70.7404 -1152.8 144 162 157
450.563 450.712 -1159.03 107 136 135
945.847 171.214 -1151.09 146 166 164
445.896 55.9308 -1157.07 128 160 159
858.01 434.525 -1153.65 138 181 177
492.889 348.48 -1108.96 43 41 18
454.857 450.763 -1158.6 104 135 132
325.936 275.841 -1160.11 85 130 126
950.369 391.302 -1147.59 144 164 157
545.576 441.179 -1157.13 111 149 154
550.981 390.715 -1156.68 109 148 151
550.624 441.253 -1156.35 111 147 156
221.577 120.411 -1158.09 102 148 146
535.625 220.888 -1104.96 40 44 31
499.152 -8.97172 -1152.96 114 161 160
555.652 440.879 -1156.55 107 152 162
760.81 375.719 -1153.37 132 166 166
446.306 320.836 -1157.61 87 129 125
360.61 326.393 -1160.52 82 125 121
565.967 440.8 -1156.19 104 130 127
390.614 430.492 -1157.61 99 129 138
505.683 75.8276 -1155.35 131 162 160
605.864 435.929 -1155.73 103 148 155
570.601 421.082 -1156.28 90 114 115
826.011 340.843 -1152.6 129 163 163
660.284 50.9619 -1153.62 138 169 166
615.58 436.021 -1156.44 111 152 154
660.612 431.062 -1155.56 119 141 144
237.329 166.507 -1158.23 84 134 132
531.793 287.366 -1103.98 36 37 24
590.854 36.1118 -1153.74 132 167 165
892.924 386.23 -1148.02 144 164 157
940.977 286.051 -1149.39 144 161 160
265.717 376.126 -1161.08 84 131 132
770.785 421.226 -1152.63 127 160 161
290.732 401.009 -1160.21 89 132 132
295.494 216.238 -1159.26 90 136 138
520.831 435.343 -1156.91 109 150 161
802.311 243.607 -1153.37 150 164 161
580.845 206.222 -1115.1 28 32 21
805.86 420.796 -1152.81 131 170 171
800.86 75.7459 -1152.14 151 171 172
335.893 355.308 -1157.57 108 129 131
925.257 400.874 -1149.44 144 164 157
965.754 261.207 -1149.6 142 162 161
680.313 67.0794 -1152.75 148 167 167
718.872 361.108 -1153.58 121 155 156
825.794 416.262 -1151.38 134 163 164
245.996 226.001 -1159.62 79 127 129
830.266 416.014 -1151.77 134 164 170
465.755 446.028 -1157.46 108 135 130
915.76 351.084 -1149.55 144 158 157
885.563 340.927 -1150.67 135 162 160
634.928 131.854 -1152.7 135 177 175
831.66 417.139 -1153.47 131 153 160
835.716 416.7 -1153.82 135 153 160
741.486 109.623 -1152.88 152 167 161
145.424 110.741 -1157.75 95 146 149
960.801 330.988 -1148.82 146 165 160
290.467 166.395 -1158.57 110 143 146
836.584 415.445 -1152.05 138 166 166
830.58 191.379 -1152.51 96 112 107
900.797 371.064 -1148.86 144 158 151
405.937 380.759 -1159.39 99 132 134
551.031 150.526 -1121.01 30 66 73
815.602 471.162 -1152 138 181 177
925.443 406.278 -1148.68 144 164 157
435.966 390.059 -1159.06 94 131 133
465.598 150.822 -1156.02 115 149 143
645.706 35.5742 -1152.09 147 161 160
740.663 345.836 -1153.69 122 146 145
570.676 396.49 -1160.19 104 115 107
729.939 260.954 -1153.92 127 146 141
705.858 281.321 -1154.13 109 127 121
591.01 416.077 -1155.28 98 135 147
630.59 275.81 -1100.56 28 31 21
260.698 466.489 -1161.01 128 139 134
771.129 91.1023 -1152.25 144 171 169
506.872 352.995 -1124.02 35 31 9
720.443 406.31 -1155.38 135 175 171
311.11 461.026 -1159.75 97 129 132
215.663 30.7544 -1159.29 91 158 162
884.496 320.919 -1148.03 61 65 40
560.786 421.248 -1156.84 111 149 154
346.622 459.017 -1158.92 104 131 129
765.168 100.417 -1153.55 144 179 176
773.903 81.5217 -1153.44 161 174 173
261.186 441.727 -1162.2 122 137 132
684.673 116.24 -1152.93 143 158 149
800.745 246.188 -1152.08 135 146 142
791.131 264.051 -1153.86 137 150 144
306.532 431.592 -1157.77 102 131 139
776.536 121.128 -1152.64 141 173 169
450.541 361.741 -1157.54 99 137 131
665.504 180.967 -1154.57 128 148 141
835.701 131.312 -1150.98 145 178 177
542.219 219.079 -1076.77 35 44 36
375.586 456.064 -1159.8 104 129 141
535.952 155.84 -1135.04 33 35 26
425.674 450.429 -1159.17 97 132 137
351.243 456.116 -1160.05 99 132 127
521.021 390.246 -1152.66 80 110 107
435.602 246.842 -1157.42 81 128 121
481.293 446.117 -1157.32 106 139 139
472.661 217.866 -1158.41 82 130 127
771.301 395.985 -1152.55 123 154 156
265.845 31.2458 -1158.96 115 152 154
139.048 414.323 -1163.37 81 138 142
691.258 181.063 -1154.79 134 153 145
805.776 366.749 -1153.98 127 152 155
370.782 50.8525 -1157.23 118 161 159
471.476 446.667 -1158.63 109 128 120
485.141 445.862 -1157.76 105 138 143
495.751 445.833 -1159.65 108 127 124
586.007 261.193 -1099.47 28 35 22
710.685 411.195 -1155.12 124 153 154
