ply
format ascii 1.0
comment Created by Open3D
element vertex 1355
property double x
property double y
property double z
property uchar red
property uchar green
property uchar blue
end_header
372.189 329.307 -1020.51 60 48 28
767.2 218.756 -1130.46 49 66 50
496.67 403.738 -1030.16 67 48 26
335.483 644.279 -1174.06 107 153 149
852.702 207.297 -1163.19 168 201 198
942.456 419.358 -1162.4 182 198 196
115.107 -161.052 -1179.47 29 70 58
367.351 -6.18578 -1045.76 58 57 37
117.406 -36.3649 -1171.58 181 199 195
1097.33 343.947 -1161.45 197 221 216
1060.19 -15.9668 -1159.03 193 227 223
446.072 253.733 -1013.3 55 48 25
1106.35 541.95 -1161.16 35 54 44
51.9828 32.918 -1173.35 149 191 191
1017.71 484.233 -1164.75 191 215 221
1107.46 274.247 -1160.72 202 225 224
161.377 48.0208 -1174.42 183 193 184
423.331 -5.47505 -1033.09 67 66 48
916.372 348.419 -1165.25 202 228 226
52.324 174.095 -1175.34 141 178 178
1021.83 204.19 -1161.34 200 219 214
601.838 518.784 -1167.59 54 58 41
515.177 567.755 -1174.22 83 110 88
600.871 514.235 -1171.69 118 161 153
587.057 3.60214 -995.551 71 73 57
262.534 519.352 -1177.79 62 64 42
323.344 131.742 -1063.41 55 57 35
1072.29 339.013 -1162.77 201 229 230
705.634 182.256 -1036.67 58 55 38
527.861 102.938 -983.066 62 61 41
60.4427 94.0738 -1179.94 121 195 198
476.038 428.192 -1011.03 63 58 29
372.105 -161.401 -1170.34 175 190 187
112.493 24.0752 -1175.89 159 188 188
821.893 268.599 -1165.79 191 212 208
337.93 447.51 -1051.32 61 57 36
675.959 331.285 -1019.9 44 63 40
1103.04 29.762 -1163.88 80 73 54
587.43 325.128 -977.457 59 49 34
414.762 557.788 -1172.88 61 82 67
606.591 468.238 -1169.07 78 120 117
267.06 154.128 -1075.77 49 44 25
177.861 288.189 -1141.8 109 170 179
507.201 298.671 -1015.91 70 56 36
192.826 110.293 -1150.68 52 59 39
881.762 583.679 -1162.26 53 77 68
760.935 524.52 -1169.73 144 183 181
656.003 203.265 -1007.96 90 87 70
102.334 503.862 -1177.89 144 177 182
830.796 474.518 -1165.61 143 200 205
196.569 230.552 -1059.31 58 60 42
640.698 255.117 -1019.81 27 37 22
291.064 523.102 -1174.85 71 60 32
1124.98 -11.2821 -1159.52 171 222 238
70.7776 9.23167 -1178.97 129 201 202
733.23 154.281 -1044.86 64 64 46
-23.8457 27.9744 -1177.98 206 249 251
-19.3468 82.9571 -1178.05 191 215 218
422.145 249.386 -1020.97 56 48 24
386.982 -10.743 -1040.25 70 67 50
1060.19 -37.9309 -1160.2 209 220 210
285.704 583.888 -1176.12 97 132 123
1041.43 458.698 -1161.16 195 217 221
580.659 399.27 -1014.85 50 43 24
1032.37 503.898 -1160.2 202 219 222
1097.4 358.609 -1164.64 211 232 226
426.026 353.062 -1018.22 67 60 31
865.388 332.567 -1161.91 213 244 242
652.305 309.084 -1036.44 62 59 40
251.194 109.138 -1111.16 46 45 26
351.12 562.8 -1176.53 64 63 37
822.112 66.0211 -961.409 70 58 49
484.857 558.222 -1174.35 83 77 63
385.752 542.825 -1170.62 64 69 57
856.79 -126.802 -1164.89 192 212 207
375.892 298.366 -1034.36 49 43 23
885.544 488.228 -1164.73 182 206 203
381.874 54.2825 -1046.11 45 45 28
24.6753 123.883 -1179.21 113 189 194
881.36 188.87 -1170.02 173 223 224
915.696 533.9 -1164.01 159 202 201
367.8 309.003 -1031.65 53 45 27
546.616 538.12 -1172.41 57 67 41
907.001 129.233 -1161.97 189 215 214
1022.36 -21.4788 -1157.17 198 220 219
871.781 158.698 -1167.11 197 219 218
366.937 -135.518 -1170.15 160 175 167
90.8557 323.207 -1175.16 151 184 181
1078 493.989 -1165.47 202 219 222
595.536 538.218 -1170.66 81 84 52
986.606 214.587 -1163.35 211 225 219
850.413 463.493 -1166.99 159 205 204
610.86 390.258 -999.343 61 44 35
1015.68 82.2616 -1164.75 89 69 44
212.468 -109.579 -1174.27 192 203 195
966.801 318.466 -1162.26 203 225 221
327.31 197.497 -1032.84 53 52 33
392.206 199.023 -1011.64 53 47 28
363.057 443.757 -1022.82 66 73 49
300.399 324.083 -1074.47 50 45 25
591.112 557.729 -1170.21 82 87 72
1101.34 462.714 -1157.68 70 59 29
977.489 -40.1253 -1165 181 231 227
597.168 123.397 -971.806 54 44 26
820.915 587.398 -1166.55 55 55 22
157.582 13.8657 -1165.11 135 192 192
897.113 -75.6459 -1163.12 207 227 221
867.256 423.927 -1170.27 190 203 205
457.341 159.1 -1016.43 51 46 24
160.632 554.095 -1179.31 120 181 187
760.872 345.117 -1147.22 67 60 51
1045.92 -46.2253 -1164.42 175 226 234
1015.31 433.528 -1165.22 94 99 73
1072.62 450.079 -1158.37 202 219 222
1002.37 -36.1602 -1161.41 206 224 221
975.617 557.774 -1162.87 77 107 102
-18.2958 192.984 -1178.34 177 204 205
661.882 328.568 -1015.74 51 54 35
-3.50796 359.263 -1177.57 162 190 195
895.268 229.425 -1162.78 163 211 216
901.99 383.603 -1167.26 199 220 218
1120.78 -21.5994 -1155.81 171 222 238
657.757 279.343 -1049.3 59 55 34
292.595 75.0019 -1088.04 50 46 28
930.622 608.854 -1162.77 158 214 215
136.061 594.017 -1175.32 118 184 193
401.792 -51.2806 -1168.13 163 182 176
600.257 518.842 -1170.74 98 130 124
277.115 -29.6436 -1063.48 78 66 47
290.629 164.491 -1057.91 52 55 36
520.637 314.158 -1009.37 37 48 29
745.413 588.508 -1166.2 92 95 99
337.886 24.1449 -1062.26 46 42 25
177.285 3.03637 -1126.59 171 188 183
262.572 448.987 -1124.35 46 47 25
256.868 314.265 -1107.22 45 42 22
255.382 352.735 -1124.78 48 49 29
432.542 227.526 -1003.18 53 49 23
477.175 479.189 -1172.81 83 128 123
605.182 602.384 -1170.81 95 115 101
800.365 397.824 -1162.5 150 192 189
647.275 204.034 -1006.39 67 58 37
132.269 -73.2043 -1173.35 190 210 203
881.364 464.181 -1167.5 185 206 194
290.67 553.99 -1173.69 90 128 116
101.48 168.986 -1176.47 144 167 170
71.7346 517.826 -1175.1 153 192 197
301.575 117.945 -1079.87 51 49 31
936.872 173.48 -1164.31 200 224 221
1061.68 556.558 -1163.33 35 54 44
616.703 572.623 -1166.46 55 51 39
351.603 59.2828 -1056.85 42 40 24
662.291 13.5517 -971.275 64 61 42
357.818 -51.4653 -1170.51 163 179 170
860.436 362.407 -1162.3 141 202 206
876.256 553.3 -1162.02 60 85 79
1120.52 52.3422 -1160.45 121 131 120
116.745 53.3959 -1181.19 158 181 179
545.568 273.741 -1013.98 29 36 21
411.255 283.331 -1027.83 64 57 35
1105.46 392.4 -1156.95 160 223 236
558.252 103.179 -972.622 99 93 70
912.393 -176.05 -1161.32 223 221 237
397.408 248.765 -1026.15 59 48 26
436.151 353.618 -1024.49 60 55 25
706.736 193.587 -1046.91 55 56 37
661.168 568.197 -1171.26 51 66 56
697.071 285.122 -1091.09 66 60 41
1036.57 562.862 -1164.16 35 54 44
760.989 593.121 -1167.46 73 86 73
31.9059 89.1304 -1178.19 140 178 177
126.831 393.865 -1177.44 159 186 186
452.363 278.953 -1021.48 57 47 25
146.528 -27.1019 -1171.86 183 209 203
685.446 312.431 -1068.84 47 66 48
280.502 -31.0996 -1057.08 41 64 51
910.339 89.3973 -1164.42 168 216 221
721.154 315.67 -1096.53 67 66 47
773.134 571.52 -1169.1 63 49 30
781.564 55.3724 -944.956 61 47 29
1111.34 577.643 -1165.75 35 54 44
92.2933 74.0467 -1177.6 146 183 182
202.38 499.118 -1161.82 80 77 68
452.404 -75.6411 -1170.19 170 199 207
956.755 -141.619 -1162.53 199 188 195
167.965 350.882 -1167.51 110 163 165
211.774 483.872 -1150.79 81 90 88
215.293 314.253 -1139.04 33 36 20
247.974 159.415 -1077.94 52 54 36
217.406 213.116 -1047.6 70 68 48
46.9162 64.7647 -1178.14 160 193 196
862.156 163.986 -1165.65 202 219 218
327.455 -65.2039 -1169.65 170 190 183
251.97 9.40296 -1090.41 54 51 33
691.061 558.051 -1166.54 55 72 50
1027.12 319.276 -1160.99 205 227 221
236.815 612.106 -1176.17 102 164 165
681.744 -161.222 -1166.03 187 202 200
71.6715 -85.9095 -1176.01 174 220 238
237.967 343.791 -1131.98 55 42 27
211.924 -111.458 -1173.21 171 183 176
416.947 247.882 -1017.33 43 49 34
404.413 45.066 -1038.69 40 39 24
330.629 478.465 -1175.58 77 122 116
862.352 63.7091 -949.989 176 229 227
71.8623 419.548 -1180.59 157 192 194
287.023 89.1811 -1087.04 48 44 27
247.384 286.935 -1097.57 58 55 32
132.632 -125.743 -1176.17 174 190 186
631.169 597.959 -1168.3 58 53 28
75.0704 272.811 -1178.99 118 182 190
179.82 367.994 -1163.91 120 151 146
726.23 -160.466 -1163.12 188 203 202
582.434 69.2763 -982.622 58 52 35
257.957 353.77 -1122.43 58 45 25
175.303 418.61 -1168.72 106 158 155
255.575 644.045 -1176.37 110 166 163
700.718 538.249 -1170.19 40 51 31
1095.72 127.857 -1158.3 135 123 136
891.772 217.878 -1165.34 204 225 221
922.24 469.026 -1166.05 201 212 220
355.907 417.738 -1049.73 67 48 40
1086.72 547.785 -1162.25 35 54 44
651.947 78.0793 -964.02 60 48 28
997.756 379.061 -1162.6 201 224 224
62.324 238.555 -1172.45 110 185 193
386.168 182.829 -1025.2 51 46 27
361.965 298.485 -1037.24 46 49 33
216.479 333.606 -1146.06 46 43 25
780.515 387.891 -1064.85 29 44 29
122.288 114.274 -1172.78 142 175 173
625.535 257.294 -1010.98 21 34 20
827.073 45.2033 -919.628 58 53 41
1065.7 524.44 -1159.74 168 208 219
192.221 494.645 -1164.73 80 86 86
1002.23 444.711 -1162.37 196 218 221
267.634 443.679 -1116.58 70 43 29
671.697 -111.461 -1164.82 169 187 181
832.047 428.674 -949.519 101 132 128
565.638 139.766 -994.643 69 69 41
385.523 483.691 -1175.37 92 134 128
91.3207 127.739 -1174.42 146 177 174
411.396 157.95 -1029.51 53 53 31
187.568 436.644 -1168.01 145 162 148
231.98 319.066 -1127.19 57 45 30
236.985 93.9294 -1124.91 49 46 30
79.7577 83.3208 -1173.19 195 215 216
666.703 364.402 -987.142 60 61 43
1080.49 489.486 -1158.8 168 208 219
1110.81 252.574 -1168.35 166 217 220
515.937 537.881 -1172.39 63 54 22
695.554 424.378 -994.393 66 54 31
435.501 489.015 -1176.66 94 136 129
687.301 -25.4203 -1166.7 178 191 186
686.151 563.771 -1168.9 41 52 30
461.166 608.889 -1174.67 119 155 161
741.428 553.231 -1164.68 91 85 86
651.151 183.621 -1013.11 48 49 30
907.725 177.179 -1163.6 195 215 223
121.997 83.865 -1177 148 181 179
-13.699 382.485 -1178.4 181 214 230
532.418 103.506 -982.286 68 66 46
577.896 -33.0427 -1168.98 173 188 183
835.791 254.509 -1170.14 154 202 199
687.46 368.384 -995.563 71 58 32
957.472 113.421 -1157.22 71 59 40
744.087 308.724 -1136.03 44 59 42
571.856 48.5162 -993.02 57 52 32
761.747 87.929 -987.454 67 54 46
1090.6 -157.863 -1160.49 103 57 28
681.516 441.944 -1006.99 48 48 48
687.824 322.767 -1054.47 62 63 46
256.75 368.826 -1125.09 62 53 33
198.139 -16.1532 -1093.21 63 70 54
441.572 324.048 -1030.33 64 52 26
372.009 0.425913 -1049.21 56 59 42
655.087 320.924 -1026.89 53 50 42
130.679 418.196 -1178.95 165 184 175
202.033 394.857 -1149.68 98 93 59
870.311 123.872 -1166.04 165 211 208
961.994 233.529 -1161.87 213 230 228
197.544 -2.68962 -1102.98 70 74 61
801.986 -160.437 -1161.99 193 216 215
187.075 137.441 -1120.64 56 64 54
136.11 487.38 -1178.48 168 195 191
502.499 248.603 -1000.66 53 43 22
1065.74 614.37 -1162.96 35 54 44
712.675 174.029 -1035.23 62 58 43
150.248 -5.79157 -1166.56 131 189 189
990.764 4.50755 -1162.67 174 225 234
125.361 578.945 -1179.05 114 196 203
600.556 249.565 -994.975 50 50 31
786.928 389.611 -1055.29 160 180 177
932.832 613.58 -1163.24 35 54 44
246.655 -0.703105 -1084.76 60 62 44
72.5766 13.7926 -1175.83 162 193 193
632.278 134.717 -974.383 69 63 44
186.55 185.191 -1062.17 67 68 53
801.691 62.0657 -951.38 79 70 43
650.621 394.193 -994.752 62 52 33
-19.0084 97.1954 -1175.67 195 211 211
335.418 528.464 -1175.66 83 100 84
167.374 -101.482 -1176.11 163 184 178
931.939 148.756 -1164.54 200 226 220
1062.56 8.65289 -1161.34 111 104 87
635.757 484.241 -1168.53 105 154 144
487.588 102.81 -998.006 71 68 52
196.319 562.286 -1179.88 148 167 159
1081.77 259.136 -1161.16 204 229 222
622.132 283.925 -1026.99 57 49 33
740.845 549.258 -1169.31 46 59 40
660.234 325.598 -1022.02 68 66 51
81.7089 -130.675 -1175.59 172 205 215
961.56 153.979 -1162.7 207 223 220
6.75935 348.735 -1177.31 161 193 194
1049.84 550.318 -1163.74 163 205 206
121.743 293.768 -1175.35 151 175 175
512.554 -81.0032 -1169.92 178 193 184
307.129 63.7249 -1081.57 47 41 24
761.621 603.445 -1171.17 75 50 35
262.027 468.465 -1131.94 66 47 26
669.783 424.513 -1008.98 46 48 22
937.023 128.682 -1161.86 177 199 201
586.265 539.538 -1171.09 80 94 78
631.607 132.315 -973.142 85 83 57
856.447 152.474 -1161.63 230 255 250
872.053 294.452 -1165.57 199 219 218
822.156 61.6317 -951.404 61 55 47
1106.48 -137.439 -1158.51 103 57 28
1066.58 274.326 -1160.22 196 220 223
1101.15 22.7778 -1162 116 127 125
967.204 -116.416 -1161.16 203 194 202
750.84 284.204 -1144.84 51 65 51
950.912 514.624 -1164.56 191 215 218
772.669 152.619 -1086.33 43 56 44
652.889 431.517 -1013.24 54 51 31
980.503 328.925 -1162.98 199 244 248
841.978 408.912 -1166.16 176 201 208
526.641 58.3196 -1000.33 55 56 34
1032.74 -101.715 -1157.55 223 221 237
795.643 603.258 -1165.93 151 189 193
712.13 73.2136 -962.925 81 69 48
482.255 138.617 -1007.59 51 50 28
215.504 121.545 -1129.24 53 53 30
-19.266 -16.5012 -1175.7 198 221 222
866.494 567.664 -1166.73 66 93 86
587.118 273.03 -1013.17 51 43 23
97.0195 114.174 -1175.13 142 172 174
184.962 609.583 -1171.05 129 187 194
1102.44 588.399 -1158.23 35 54 44
731.858 179.349 -1059 44 59 46
226.613 137.285 -1105.39 48 46 27
72.0036 338.324 -1177.19 148 180 180
336.356 427.763 -1060.75 55 51 31
1116.44 378.083 -1167.43 220 255 252
127.287 -111.401 -1177.02 167 187 184
1082.64 288.899 -1160.02 203 223 224
261.8 330.774 -1107.86 43 59 34
366.289 415.409 -1046.68 61 52 29
966.005 168.382 -1166.1 227 251 251
1036.63 168.197 -1164.3 210 227 222
917.481 444.005 -1165.34 196 215 225
241.887 -32.3862 -1067.49 69 70 53
254.803 589.518 -1176.44 111 155 146
16.7044 462.549 -1180.03 186 204 201
243.168 160.051 -1078.05 53 54 38
496.866 63.8141 -1006.34 50 53 32
229.885 264.955 -1089.29 40 48 34
330.922 643.424 -1175 103 149 141
581.09 579.154 -1172.74 78 76 51
1081.44 523.552 -1164.62 195 217 221
245.507 27.7533 -1097.2 43 62 49
440.372 167.436 -1016.95 47 58 38
962.47 407.701 -1163.02 174 184 178
196.849 553.989 -1177.8 118 162 161
800.622 567.129 -1169.09 44 56 45
860.501 267.85 -1169.54 230 254 249
400.7 289.256 -1027.78 39 48 31
280.856 462.885 -1120.63 61 56 27
-12.4146 408.922 -1177.47 170 197 204
221.134 126.633 -1119.96 49 48 30
582.816 111.999 -968.133 79 74 57
881.864 383.566 -1163.5 208 240 237
807.951 174.037 -1162.02 156 200 194
1066.88 118.707 -1156.57 97 94 77
72.874 534.031 -1179.68 141 186 188
160.916 -115.02 -1179.16 180 200 195
230.601 303.326 -1120.16 44 46 26
536.16 -1.73577 -1009.55 57 55 40
975.889 632.569 -1165.3 60 86 78
1037.03 303.9 -1162.75 195 223 218
641.616 340.913 -988.581 57 44 48
522.232 153.944 -1000.33 53 49 27
542.33 213.824 -981.138 66 59 34
477.444 269.426 -1014.94 55 49 22
796.499 553.081 -1167.2 67 73 71
270.536 79.3937 -1104.55 49 47 32
447.458 339.682 -1027.86 64 53 25
322.222 94.3855 -1062.47 41 40 21
721.063 299.522 -1106.83 57 64 47
430.288 493.928 -1176.87 93 135 127
910.252 404.161 -1162.48 155 215 226
541.304 517.567 -1172.01 63 67 39
97.2277 293.91 -1177.9 144 175 171
751.75 268.257 -1141.71 41 55 42
157.622 57.1657 -1166.66 123 192 193
937.694 -15.2171 -1161.99 204 225 216
222.797 -105.742 -1172.93 155 169 160
186.856 492.536 -1177.28 151 179 173
717.099 379.412 -995.876 158 165 166
965.813 423.035 -1162.27 167 212 211
542.369 193.645 -994.841 71 67 41
820.426 549.406 -1164.53 113 132 133
742.655 124.931 -1025.37 59 62 39
395.032 613.866 -1176.16 110 154 148
383.14 59.9347 -1043.01 50 49 33
918.012 -35.1979 -1164.16 215 227 229
600.45 589.462 -1172 87 112 89
281.107 558.547 -1175.26 73 74 41
990.864 8.42562 -1161.88 177 227 231
246.768 513.487 -1171.09 69 41 31
632.484 -120.772 -1166.57 180 188 179
576.809 19.2325 -995.424 66 62 43
812.315 -75.9222 -1166.26 198 221 217
616.052 553.044 -1171.32 63 69 54
587.52 178.477 -997.848 52 50 31
156.135 438.759 -1174.82 153 170 171
148.041 164.378 -1170.1 157 177 171
537.223 287.798 -1013.3 62 52 29
1115.92 98.1146 -1160.06 106 108 92
81.1891 624.384 -1178.11 116 182 190
213.165 130.173 -1117.47 49 51 39
690.282 538.481 -1172.75 46 48 34
351.624 227.157 -1027.88 51 53 29
1041.69 -41.3866 -1162.41 199 225 218
475.292 614.129 -1174.83 109 154 153
333.438 273.592 -1052.96 43 39 19
946.667 -31.6538 -1164.9 210 224 219
730.254 309.97 -1111.68 65 64 47
1011.64 138.296 -1162.19 179 195 187
547.22 189.366 -995.371 53 52 29
66.843 509.161 -1179.82 157 185 190
675.51 419.252 -1004.5 40 49 36
835.631 548.004 -1166.29 59 67 46
791.676 389.668 -1165.96 169 190 188
312.559 180.011 -1043.42 54 49 29
140.532 568.896 -1177.32 103 185 191
671.117 582.325 -1169.56 70 86 55
935.759 -17.3565 -1163.8 203 223 218
1155.91 397.628 -1180.4 221 252 249
226.416 163 -1079.8 58 54 36
249.071 323.892 -1111.71 49 60 41
59.8076 599.268 -1183.43 113 191 195
705.93 123.252 -1002.61 65 56 37
712.225 289.562 -1096.03 43 58 44
-4.07982 83.1322 -1175.34 187 212 215
162.308 -136.143 -1172.96 188 208 202
935.552 339.245 -1167.06 167 214 207
-3.71223 423.063 -1180.65 167 199 199
996.397 273.328 -1165.05 217 248 246
745.734 375.677 -1025.43 130 154 151
261.675 78.636 -1109.58 49 48 31
330.702 453.865 -1174.19 47 90 84
11.0958 233.349 -1179.7 123 186 195
1102.98 642.245 -1158.52 35 54 44
510.358 482.151 -1171.57 103 141 132
355.504 514.287 -1175.4 91 133 124
1085.62 -55.8868 -1160.01 181 231 227
970.483 429.529 -1162.41 161 214 217
1097.07 453.946 -1160.55 177 191 188
450.677 419.405 -1025.11 57 58 38
182.555 -66.619 -1175.5 182 194 192
255.193 304.246 -1107.15 26 36 22
290.141 584.131 -1175.77 92 128 116
115.46 393.622 -1179.79 120 179 182
1101.2 622.344 -1160.78 35 54 44
776.064 232.303 -1155.31 50 70 54
922.57 399.503 -1165 194 208 208
962.06 537.169 -1162.03 163 205 210
835.496 598.091 -1166.47 64 75 43
500.986 429.996 -1018.58 70 56 30
77.2366 58.7487 -1175.26 160 193 196
650.915 258.012 -1030.79 46 48 30
150.636 578.799 -1175.05 115 182 186
991.011 583.248 -1162.66 76 107 101
977.129 -105.852 -1161.28 223 221 237
704.975 404.458 -997.366 51 54 43
769.082 377.114 -982.093 197 217 220
31.8329 -72.481 -1175.08 190 225 236
386.178 261.523 -1032.69 50 49 29
-23.7688 282.856 -1181.35 183 208 213
186.081 347.968 -1158.64 49 50 23
-23.2656 -61.7995 -1175.73 198 233 229
121.887 8.42543 -1176.07 162 191 189
260.21 568.553 -1175.47 108 148 143
47.1147 93.7877 -1177.44 150 184 185
1078.63 93.3985 -1158.68 59 53 27
61.9459 433.854 -1181.6 147 187 189
725.742 552.369 -1166.94 77 104 89
297.686 199.585 -1047.32 56 48 30
219.758 93.3301 -1139.7 58 59 39
705.325 539.554 -1169.82 39 45 29
-7.11265 183.105 -1177.99 167 197 201
701.801 8.98156 -952.055 108 99 81
447.436 -161.521 -1169.49 167 191 186
997.145 610.039 -1164.01 35 54 44
1018.04 104.058 -1163.03 83 67 48
791.779 592.898 -1166.63 83 83 57
642.807 321.729 -1015.34 64 53 38
957.049 239.616 -1164.35 220 249 235
755.397 273.794 -1145.44 47 60 48
97.1371 89.1934 -1176.43 148 178 177
202.369 222.895 -1052.25 64 57 33
526.895 98.9696 -985.103 85 77 54
1050.22 363.44 -1161.09 159 222 235
1025.61 568.772 -1164.87 66 94 87
225.844 484.634 -1149.5 66 52 33
226.055 514.888 -1171.53 53 54 33
121.923 -31.0287 -1170.83 181 197 195
621.42 245.86 -991.586 56 62 41
765.243 417.36 -976.882 68 72 63
81.234 418.655 -1177.98 143 188 193
958.939 165.288 -1158.35 199 217 211
534.351 159.024 -1003.81 65 61 34
850.589 543.017 -1165.96 65 71 50
495.65 442.741 -1174.14 49 94 89
670.19 379.74 -990.933 47 48 34
731.241 226.979 -1057.38 82 75 58
997.36 394.183 -1165.02 205 223 217
426.921 274.274 -1025.84 55 47 24
55.3118 413.525 -1179.41 160 194 194
500.276 513.573 -1174.28 105 151 143
530.924 552.867 -1170.48 54 52 39
597.09 -61.0329 -1167.81 177 194 186
-8.26326 483.515 -1181.7 166 191 199
109.931 604.248 -1179.58 126 190 193
193.592 519.086 -1179.26 140 172 163
202.197 -136.838 -1175.18 169 185 179
132.946 -76.1286 -1173.07 177 197 195
967.8 353.741 -1162.34 202 225 224
661.711 93.8278 -967.371 60 51 27
531.191 557.489 -1171.54 65 72 61
390.555 384.118 -1049.41 28 36 23
165.125 383.905 -1166.46 121 187 195
111.843 203.427 -1176.94 133 165 162
1071.12 17.8302 -1160.43 121 139 124
582.079 254.29 -995.812 57 46 31
521.929 44.0611 -1005.55 69 68 49
527.363 160.23 -1004.08 74 68 37
542.18 203.924 -987.085 55 48 31
417.27 94.1569 -1015.91 68 69 48
588.477 127.501 -978.207 49 44 26
615.913 562.807 -1170.22 49 55 37
730.898 392.587 -986.679 69 61 32
670.808 212.375 -1007.83 103 122 105
462.283 149.299 -1012.82 50 45 27
135.389 169.517 -1174.96 166 184 176
650.058 439.65 -1023.89 32 45 24
130.712 -47.0691 -1175.88 183 207 202
761.388 418.632 -974.915 62 59 36
407.291 268.992 -1031.1 53 44 22
1090.37 -21.2577 -1160.24 178 228 231
212.819 -36.141 -1072.26 73 70 61
147.315 38.8374 -1171.98 160 187 185
637.117 4.32007 -981.944 95 94 83
725.64 413.755 -989.838 44 57 45
311.058 513.126 -1176.77 73 80 66
593.205 54.1268 -987.982 59 53 33
366.037 542.917 -1174.4 65 66 52
241.918 11.9437 -1091.15 43 61 55
712.309 94.4487 -981.08 61 51 32
621.317 -174.571 -1163.34 191 202 199
481.695 583.695 -1173.4 77 68 57
321.743 239.319 -1044.29 49 42 21
521.519 368.846 -1012.71 59 54 27
510.473 509.278 -1172.4 106 152 145
781.114 422.391 -966.474 45 49 36
1001.14 631.937 -1164.18 76 107 101
167.393 123.773 -1161.31 124 156 151
559.968 412.865 -1026.91 47 62 45
236.664 148.848 -1090.48 46 47 30
275.837 318.316 -1095.83 35 38 20
316.538 -61.9773 -1168 167 185 180
123.274 -40.8935 -1174.42 175 201 197
656.938 -86.3675 -1166.64 187 201 195
202.022 -36.4161 -1076.27 74 74 60
1107.2 364.091 -1160.35 189 219 219
621.95 103.327 -962.95 69 66 42
835.568 474.44 -1164.34 146 199 202
401.785 103.38 -1018.21 62 60 40
550.839 557.455 -1170.44 73 76 45
716.217 91.7986 -977.808 75 70 58
225.41 303.539 -1124.3 46 46 25
806.579 332.613 -1167.5 212 237 234
422.369 154.206 -1027.13 48 46 25
-24.0501 12.6139 -1181.38 207 233 228
1097.39 523.775 -1163.55 185 213 220
237.6 414.356 -1127.53 62 50 34
486.066 372.595 -1015.81 62 56 30
687.577 118.714 -990.58 61 56 36
606.68 129.817 -976.202 53 46 26
192.361 298.759 -1142.2 46 46 28
530.487 604.535 -1173.8 98 153 142
957.115 -135.717 -1164.19 223 221 237
82.3495 8.63498 -1179.34 166 188 185
166.515 2.58827 -1165.89 188 201 195
282.27 278.152 -1076.83 57 47 24
511.104 518.031 -1176 69 77 54
481.765 148.987 -1010.09 61 60 36
1000.1 -35.9542 -1163.91 181 231 227
817.252 54.7618 -940.972 67 47 28
720.17 138.274 -1022.18 59 60 40
261.131 113.864 -1104.35 43 41 26
173.303 357.525 -1167.1 123 153 152
397.303 14.2131 -1042.19 48 49 31
796.214 333.314 -1167.27 181 221 211
195.102 9.61081 -1114.28 74 93 80
192.372 409.484 -1151.47 168 183 173
637.235 78.9674 -966.257 55 49 30
754.541 339.501 -1145.32 24 42 29
1016.03 193.377 -1164.53 192 215 209
386.9 494.15 -1173.03 102 145 139
557.884 231.954 -976.892 39 53 38
155.663 599.282 -1175.71 108 180 186
811.808 299.002 -1165.22 190 206 201
1040.32 227.714 -1162.81 213 239 237
492.362 -70.9296 -1168.39 167 208 225
506.066 -100.465 -1167.78 88 73 48
1076.02 -151.683 -1159.46 103 57 28
712.884 16.5014 -948.56 103 57 28
1032.33 -6.15754 -1160.48 197 225 220
252.652 -46.2397 -1173.05 163 178 176
984.777 524.833 -1169 202 219 222
851.962 213.675 -1166.11 195 210 205
965.815 602.024 -1162.11 158 214 215
872.278 -72.6233 -1162.72 204 225 224
842.102 532.079 -1167.73 50 73 49
702.556 163.606 -1020.41 71 64 46
376.305 246.596 -1027.68 45 46 27
672.641 208.148 -1019.62 67 58 40
37.8669 19.8411 -1175.94 174 201 199
1046.14 646.927 -1172.3 158 214 215
902.103 283.656 -1161.98 161 208 210
301.221 356.735 -1088.5 49 47 35
276.986 113.877 -1095.86 44 42 26
151.098 -42.5849 -1169.89 182 203 194
736.791 -17.0009 -1165.81 185 197 183
487.278 58.9393 -1010.92 57 59 39
600.516 418.736 -1024.93 31 38 21
334.912 77.9746 -1060.02 62 54 35
571.729 248.9 -991.092 61 53 30
116.468 358.33 -1176.3 143 180 175
18.0289 113.871 -1179.33 122 191 195
452.822 -151.304 -1169.99 176 191 187
726.754 -120.911 -1164.95 187 203 202
855.314 423.379 -940.185 132 156 164
1111.96 593.196 -1156.96 35 54 44
947.899 102.578 -1165.37 96 98 78
747.085 441.721 -985.34 60 85 78
396.631 541.966 -1174.48 76 99 83
198.16 457.062 -1156.98 125 162 158
312.574 129.039 -1071.11 46 42 25
128.57 -80.1732 -1173.08 186 205 204
387.13 18.5854 -1044.86 52 49 34
357.757 208.869 -1025.66 57 50 30
937.406 264.264 -1165.7 207 226 220
125.976 573.233 -1181.19 115 193 204
137.48 448.742 -1174.89 147 175 173
611.072 412.878 -1016.46 60 50 22
694.98 554.337 -1170.12 50 54 26
772.091 63.4418 -952.38 77 75 67
261.298 -57.3607 -1173.46 180 194 185
777.115 359.267 -1161.28 175 194 185
536.931 107.311 -982.872 68 64 47
432.121 128.756 -1017.12 60 57 38
1102.11 408.72 -1162.67 193 209 208
208.118 51.547 -1132.81 55 48 34
228.615 348.959 -1137.69 53 45 31
642.512 411.736 -1007.58 66 57 30
641.477 370.712 -984.1 51 42 42
516.104 568.228 -1172.28 66 55 22
-24.4354 370.009 -1178.38 177 201 198
780.779 122.39 -1051.41 62 70 52
131.62 34.1191 -1177.2 158 187 188
897.443 188.587 -1165.67 204 223 217
1102.56 155.731 -1164.29 198 211 207
991.966 334.096 -1161.67 205 232 238
700.043 529.587 -1165.69 136 185 183
181.121 513.079 -1177.23 149 182 170
56.9137 60.6841 -1179.37 147 181 184
517.227 334.051 -1010.36 57 56 34
942.437 379.157 -1160.26 196 219 220
227.341 494.455 -1155.65 54 51 33
531.132 548.574 -1174.87 109 152 148
742.382 -36.1068 -1166.33 187 203 198
1080.73 -56.289 -1158.95 181 231 227
442.634 184.296 -1008.59 65 66 39
150.435 277.49 -1169.63 109 163 165
202.968 309.233 -1142.93 63 55 38
513.489 -22.4829 -1168.45 198 201 178
212.196 448.679 -1136.82 104 87 55
232.045 244.236 -1070.43 58 48 24
1096 13.4055 -1161.67 103 121 102
21.9308 263.942 -1177.12 143 185 193
115.45 569.465 -1181.09 118 184 188
1042.6 423.812 -1157.72 193 218 220
221.825 144.941 -1097.39 52 46 27
270.688 594.012 -1178.81 65 72 50
1091.61 244.14 -1158.18 226 255 250
416.152 428.852 -1012.2 57 65 48
1036.36 53.0621 -1162.6 119 127 113
65.7837 399.792 -1177.49 153 189 187
237.403 130.002 -1107.9 48 42 25
790.93 603.469 -1164.63 138 192 195
220.588 319.26 -1139.32 38 42 23
420.845 302.442 -1022.98 65 63 40
1086.59 337.546 -1156.73 170 216 211
896.711 418.548 -1163.29 172 211 208
392.648 299.039 -1027.68 54 44 25
675.24 138.007 -992.5 75 77 58
566.98 182.387 -994.446 57 51 33
651.971 219.479 -996.821 68 62 44
876.911 -61.312 -1162.24 209 248 249
269.531 384.083 -1113.14 76 46 30
1061.01 509.098 -1165.29 161 209 207
196.501 -140.087 -1174.72 150 171 165
580.501 473.812 -1171.07 94 131 124
831.726 409.832 -955.256 157 205 204
570.698 -62.0346 -1168.28 184 198 191
696.744 375.104 -992.626 71 71 53
695.838 353.171 -1007.29 106 104 87
192.491 99.2712 -1159.72 49 42 28
142.052 87.9882 -1174.44 153 174 175
382.448 253.926 -1031.5 53 45 21
937.388 519.156 -1165.44 210 224 217
176.201 273.792 -1135.86 81 108 105
787.799 64.7048 -954.908 74 67 53
-3.87882 132.813 -1177.1 182 204 206
905.029 51.7987 -1162.25 160 211 210
141.05 -42.5244 -1175.41 185 213 204
585.501 433.638 -1033.81 44 54 42
885.381 359.277 -1169.84 164 214 216
710.881 558.062 -1166.3 82 89 51
997.023 -11.1565 -1165.6 204 225 217
532.392 204.651 -986.642 54 47 30
262.208 33.5498 -1095.95 56 49 33
666.06 164.841 -1010.09 55 45 32
483.111 237.476 -998.546 50 41 18
206.152 383.697 -1147.13 62 59 40
221.303 373.172 -1146.5 47 53 30
1071.33 278.434 -1165.94 222 254 251
847.054 -5.04186 -1163.1 198 228 232
316.829 24.2503 -1069.86 55 56 37
557.596 -110.94 -1167.17 174 185 179
349.345 262.064 -1043.67 52 40 20
36.6988 74.0742 -1179.64 145 185 186
316.79 259.254 -1055.93 51 40 20
981.495 217.636 -1166.83 204 241 236
341.871 73.8715 -1056.46 42 39 22
545.237 323.397 -998.738 34 44 26
581.982 248.899 -990.329 60 54 35
522.483 417.536 -1027.84 57 54 35
535.903 564.283 -1174.98 61 83 67
105.806 258.225 -1176.03 143 179 171
881.201 581.966 -1164.26 35 54 44
1115.39 93.372 -1161.54 109 119 104
217.716 119.253 -1126.84 43 42 26
691.394 334.47 -1037.2 65 48 37
1036.79 587.741 -1163.67 97 134 130
417.783 378.057 -1032.46 60 56 31
81.3319 58.18 -1177.18 159 187 188
955.373 269.371 -1165.25 168 218 216
501.713 234.492 -994.178 56 44 21
186.9 243.827 -1070.3 118 140 134
952.287 178.779 -1165.78 198 218 222
642.352 228.788 -981.298 77 71 45
43.2821 -15.6698 -1176.65 174 201 195
455.869 552.92 -1174.79 71 67 54
1081.99 434.811 -1160.22 182 198 197
1065.44 -40.2511 -1157.54 207 222 213
102.995 318.557 -1174.87 148 179 176
221.869 -6.06393 -1090.72 61 62 48
816.051 452.789 -1167.1 135 184 185
452.245 87.8343 -1010.04 51 53 33
922.437 -15.6388 -1164.24 204 224 217
601.434 403.951 -1012.6 63 59 33
342.924 394.156 -1072.66 54 45 25
1010.62 219.226 -1163.9 166 217 218
86.9718 -150.591 -1175.98 167 206 213
492.38 517.698 -1172.52 77 81 59
116.593 443.557 -1176.54 145 179 177
406.353 538.055 -1172.99 102 87 58
561.049 548.044 -1170.77 73 63 56
845.439 335.013 -1165.15 161 201 198
826.338 29.4244 -902.212 74 56 41
507.446 -116.014 -1167.3 170 184 174
703.459 43.3837 -958.015 76 53 31
676.409 411.529 -997.978 75 56 49
1069.99 268.107 -1164.94 228 255 248
572.335 374.399 -1001.68 60 49 39
366.758 204.007 -1020.98 52 48 27
281.807 364.297 -1105.9 43 51 17
67.4907 402.858 -1180.05 130 185 190
912.307 -50.9676 -1161.9 205 225 224
432.034 192.749 -1009.63 53 52 30
767.615 22.2726 -927.67 77 51 35
317.176 194.479 -1039.78 49 42 22
159.793 303.189 -1174.13 147 170 165
527.412 108.851 -986.366 48 47 27
851.077 233.976 -1167.42 183 221 218
926.17 229.642 -1164.41 197 220 211
1071.92 263.816 -1160.13 206 226 222
695.789 534.82 -1166.01 127 179 178
734.251 263.938 -1119.72 42 55 42
927.807 212.304 -1162.82 205 226 221
382.244 -141.842 -1169.66 166 186 185
1056.89 484.081 -1164.38 202 219 222
750.66 424.285 -980.439 56 64 60
221.458 164.129 -1080.64 58 55 38
345.771 288.962 -1049.39 48 44 24
891.666 113.203 -1167.26 166 215 213
461.829 234.109 -1001.26 51 42 20
1137.51 24.0723 -1161.01 171 222 238
472.445 -76.0077 -1167.42 174 195 199
607.785 302.9 -1010.58 60 53 37
250.44 473.781 -1139.68 53 44 31
211.287 562.064 -1178.06 174 171 153
162.384 147.845 -1170.27 153 182 175
981.957 424.025 -1166.04 179 191 187
432.498 268.817 -1022.75 53 47 24
739.933 608.918 -1167.7 113 155 160
1062.04 114.083 -1160.77 79 73 55
181.668 497.682 -1177.84 147 181 171
272.916 483.214 -1145.65 51 54 20
982.324 -20.9613 -1162.18 207 220 214
240.701 266.636 -1082 32 40 26
397.103 409.561 -1037.39 54 55 37
801.45 582.533 -1167.14 66 88 74
102.603 8.21832 -1177.06 167 190 187
505.524 448.019 -1172.17 60 101 95
207.482 154.166 -1091.47 59 54 34
800.19 549.053 -1167.15 85 104 98
897.22 354.152 -1162.07 200 217 213
380.252 593.765 -1175.3 71 105 89
570.727 568.695 -1173.75 72 83 41
620.794 648.65 -1170.71 134 165 164
46.6366 -11.4469 -1179.34 173 220 225
407.358 -143.021 -1168.02 187 202 205
721.651 -137.195 -1169.6 68 58 45
947.276 308.467 -1162.1 196 224 215
90.3038 -45.8067 -1179.37 132 201 209
-2.24699 448.194 -1179.18 172 197 198
1137.78 28.6582 -1164.85 80 71 50
922.179 628.955 -1165.73 158 214 215
645.934 577.872 -1170.83 86 81 57
915.845 562.054 -1162.95 35 54 44
192.053 146.851 -1104.89 60 57 38
68.1667 504.311 -1178.07 160 189 193
207.331 79.4965 -1147.17 50 47 32
687.466 272.819 -1071.17 37 48 34
986.808 -65.5114 -1157.41 217 225 227
775.977 30.4453 -930.006 73 58 42
250.465 579.002 -1176.87 109 159 150
-23.7214 342.419 -1176.95 173 202 197
736.342 249.669 -1109.66 42 50 41
1057.77 -75.5049 -1159.28 210 226 219
341.02 130.951 -1058.81 41 40 23
552.121 203.658 -986.477 55 50 31
170.674 57.66 -1171.27 180 195 185
51.1627 64.61 -1178.25 161 193 195
708.193 338.294 -1051.35 65 48 28
625.983 639.647 -1169.87 140 169 170
175.291 608.705 -1171.81 121 190 193
441.535 -126.167 -1167.45 163 180 176
411.598 496.584 -1176.79 102 138 126
237.416 453.808 -1132.53 54 45 30
315.573 583.915 -1174.61 92 127 125
337.669 442.319 -1052.97 61 52 31
602.156 203.67 -985.941 61 55 34
222.549 317.887 -1132.29 60 51 28
732.666 328.794 -1096.51 43 57 43
1115.9 552.578 -1162.92 35 54 44
-9.06489 -26.7596 -1177.41 181 228 232
226.93 14.248 -1100.69 61 58 39
387.609 268.712 -1035.86 45 41 21
307.146 184.804 -1042.92 54 53 32
161.435 309.214 -1166.2 131 161 161
671.163 199.852 -1022.45 65 61 42
1042.43 353.032 -1161.66 202 227 227
756.553 15.3634 -930.507 70 63 49
142.205 412.96 -1176.59 154 179 177
351.452 252.215 -1037.76 43 42 23
586.554 -1.24344 -992.994 66 60 45
262.618 394.049 -1116.59 64 46 31
776.746 154.735 -1094.42 41 58 45
722.194 363.535 -1030.52 76 69 50
50.4458 73.3997 -1179.77 126 197 201
931.539 -135.656 -1161.55 211 205 216
1067.11 218.66 -1161.43 198 219 211
620.195 468.896 -1168.6 86 129 130
946.129 257.743 -1162.52 170 222 220
705.28 340.871 -1036.87 57 63 39
361.06 532.532 -1172.57 47 53 42
1016.99 459.505 -1162.68 196 217 222
742.637 72.3249 -963.095 56 50 32
997.495 492.316 -1161.69 163 206 202
492.381 33.9443 -1015.93 55 52 36
965.541 63.6438 -1164.72 173 225 241
617.653 331.885 -989.485 87 80 64
656.155 547.879 -1170.65 67 69 62
11.7054 132.787 -1179.95 175 206 208
206.591 44.9046 -1129.93 55 54 40
606.986 339.852 -976.635 62 54 40
861.038 71.8849 -1163.21 83 118 116
465.52 634.195 -1172.71 105 149 158
390.789 632.88 -1173.17 110 153 145
378.51 183.678 -1024.5 49 46 27
940.643 618.881 -1166.53 158 214 215
627.838 278.969 -1029.26 52 51 30
845.591 138.99 -1164.97 160 200 197
650.48 279.177 -1042.91 74 66 46
396.622 433.168 -1011.38 73 70 48
765.738 274.345 -1157.05 52 70 60
1060.84 187.971 -1161.18 214 242 244
420.451 537.874 -1177.8 32 48 41
1056.26 358.285 -1164.34 206 228 221
671.522 633.897 -1168.08 125 180 185
585.974 263.855 -1011 47 47 25
990.59 602.975 -1161.52 35 54 44
777.303 388.549 -1056.42 165 185 188
631.752 194.032 -1001.82 62 53 31
410.221 369.604 -1034.33 23 32 19
311.031 464.034 -1176.58 53 94 90
335.673 562.4 -1175.94 65 63 43
951.59 468.947 -1165.11 202 219 222
685.131 176.785 -1022.83 53 51 32
-2.42582 464.091 -1178.39 165 192 199
130.509 503.452 -1177.61 114 180 186
1021.81 343.653 -1161.23 193 219 215
1105.47 -45.8533 -1161.17 181 231 227
-23.1315 347.314 -1175.7 185 203 199
536.111 557.208 -1170.28 65 71 44
55.4841 559.569 -1179.01 119 183 189
706.851 -126.591 -1164.69 176 191 187
1141.63 494.649 -1172.06 202 219 222
787.172 398.26 -1037.52 47 58 46
931.161 38.2932 -1162.72 171 222 235
155.752 107.597 -1165.99 118 182 186
360.809 578.457 -1174.35 56 69 56
150.831 509.636 -1176.34 113 178 179
6.07836 -47.2297 -1176.77 198 226 228
1077.05 139.954 -1159.28 191 218 212
27.5538 178.815 -1176.91 146 179 180
481.43 -63.0812 -1168.03 175 189 179
561.803 87.4977 -979.435 55 53 35
485.235 582.482 -1173.77 64 60 41
272.028 -162.086 -1172.82 188 192 187
50.5028 533.455 -1179.4 118 187 200
125.987 552.837 -1181.04 130 186 191
717.173 349.792 -1041.42 60 64 48
62.0404 218.333 -1179.65 154 182 183
487.946 -31.7627 -1169.31 163 184 179
1065.37 312.316 -1166.58 210 243 243
90.859 512.986 -1176.61 157 193 203
65.683 114.329 -1179.66 119 192 198
847.147 249.293 -1166.77 192 214 216
586.024 572.882 -1170.74 71 64 48
327.166 308.675 -1056.63 51 42 23
1107.03 444.13 -1160.98 180 192 188
571.811 313.369 -995.851 57 54 43
489.861 333.417 -1024.15 62 62 42
192.474 8.29983 -1111.92 67 61 50
380.537 19.1333 -1048.74 53 57 43
0.96821 413.049 -1180.24 178 203 204
237.121 -11.0219 -1081.67 64 62 48
231.333 453.475 -1134.5 59 53 35
1100.78 257.91 -1161.78 222 255 250
840.97 74.0038 -990.747 83 83 53
862.933 -176.183 -1164.13 222 222 237
425.761 547.512 -1172.27 65 78 48
245.536 509.028 -1173.97 95 145 143
967.477 -40.4333 -1164.81 207 221 213
391.974 88.9145 -1020.25 79 75 51
1070.23 464.948 -1164.56 64 58 30
1001.35 277.995 -1166.38 223 254 251
301.866 -101.195 -1171.64 170 179 174
155.137 317.657 -1179.42 143 171 162
187.235 378.802 -1155.66 103 104 78
371.626 383.843 -1055.27 58 46 25
705.703 187.993 -1042.45 60 55 40
792.231 393.7 -1164.86 142 178 174
1090.86 399.146 -1162.43 161 220 236
30.4961 546.621 -1176.95 166 198 206
977.055 602.289 -1163.06 76 107 101
611.335 432.581 -1026.45 111 94 75
199.496 -150.508 -1178.87 49 64 48
301.057 624.24 -1176.69 105 151 149
842.446 571.86 -1168.43 30 49 20
920.934 13.9243 -1162.48 164 217 219
881.904 154.073 -1170.65 195 212 211
965.441 59.1434 -1165.15 174 227 236
590.264 574.236 -1173.91 102 135 116
830.85 -125.409 -1163.93 74 70 45
861.396 177.691 -1166.09 229 249 245
276.968 199.27 -1049.94 52 47 30
888.882 208.314 -1162.58 158 207 206
272.814 -7.25026 -1072.92 60 59 39
240.486 484.545 -1150.23 47 53 32
1127.28 208.066 -1164.25 232 252 251
1110.56 137.873 -1160.73 111 123 108
789.037 198.347 -1156.4 56 88 81
72.025 488.893 -1176.94 164 187 190
22.437 63.0418 -1179.34 184 212 215
1038.77 -9.62335 -1157.53 181 231 227
352.049 139.158 -1052.21 45 40 24
197.378 479.385 -1156.59 80 95 94
1122.05 328.991 -1161.63 200 223 220
251.137 644.079 -1176.44 115 161 159
1010.5 548.377 -1160.64 76 103 97
815 153.732 -1169.35 160 198 193
837.141 447.512 -1164.9 177 207 203
760.58 127.66 -1042.44 73 69 50
525.702 548.632 -1175.12 111 156 154
260.087 472.505 -1144.87 39 41 32
812.215 402.057 -1001.83 62 61 65
835.819 608.619 -1166.95 84 101 75
465.811 28.6839 -1024.54 58 59 41
1107.04 418.274 -1162.27 188 205 205
558.576 3.535 -1003.1 67 66 48
229.332 111.066 -1123.2 47 42 24
737.802 319.263 -1116.15 67 64 47
507.139 -62.0886 -1173.78 176 189 184
1026.36 248.405 -1164.52 197 215 214
256.652 473.579 -1137.04 67 46 26
903.163 447.01 -1163.19 179 213 212
616.221 568.338 -1166.98 60 61 50
852.757 378.799 -1159.56 185 204 201
66.9743 58.5778 -1176.16 163 193 198
121.713 439.145 -1177.74 149 183 172
436.999 355.093 -1022.31 61 57 28
951.029 87.3357 -1163.02 79 71 43
97.258 73.9539 -1177.9 153 186 186
771.098 127.636 -1051.17 74 71 48
155.753 289.257 -1170.24 110 165 170
723.931 308.133 -1105.98 75 66 48
831.106 82.0975 -996.465 90 77 67
206.991 318.308 -1142.82 52 49 31
407.95 149.255 -1032.56 47 45 27
266.836 403.867 -1115.23 62 47 34
447.147 191.923 -1004.35 53 50 31
966.981 142.685 -1162.89 197 211 204
382.617 75.0112 -1033.25 56 51 31
467.344 164.17 -1014.29 49 47 26
260.259 500.203 -1169.96 72 59 17
376.381 184.222 -1022.93 47 41 23
180.236 117.415 -1155.47 120 132 124
321.222 312.661 -1059.46 50 43 25
6.3003 197.245 -1175.64 173 198 200
871.013 453.85 -1162.86 145 199 202
425.089 373.865 -1030.47 36 36 19
190.601 503.793 -1175.76 111 171 174
178.008 126.912 -1157.05 162 177 167
117.271 159.123 -1177.34 132 165 161
822.018 199.095 -1165.13 184 203 201
645.234 389.636 -994.422 58 46 47
575.7 408.962 -1024.54 32 39 25
52.4562 288.884 -1176.62 141 180 183
659.134 246.604 -1017.48 20 33 20
326.697 418.582 -1069.56 50 48 31
459.645 -148.374 -1169.7 182 191 182
562.056 174.666 -998.29 51 49 29
1031.72 443.777 -1161.95 195 216 219
660.495 428.154 -1010.98 48 48 30
30.967 537.779 -1176.58 162 198 206
307.326 165.14 -1053.02 51 48 31
406.534 414.167 -1029.97 56 57 40
1000.99 28.8701 -1160.89 168 227 238
322.759 324.17 -1052.67 50 42 23
275.832 158.497 -1069.55 49 44 29
313.028 64.1771 -1076.69 49 44 28
417.136 -70.9927 -1167.7 168 204 211
245.943 404.618 -1129.77 54 54 31
300.57 -110.833 -1168 49 63 42
1036.87 493.187 -1162.75 195 217 220
991.76 188.465 -1162.8 199 217 216
417.275 259.028 -1025.79 56 48 25
361.427 493.712 -1176.97 94 140 133
580.879 532.666 -1166.46 73 49 33
76.8512 458.806 -1181.66 150 185 183
310.957 557.679 -1175.35 67 68 52
-8.82651 243.382 -1176.32 170 201 203
911.883 -131.001 -1161.29 208 201 211
205.878 404.065 -1140.26 102 103 76
1081.13 267.919 -1158.29 227 254 248
297.755 43.0075 -1082.32 44 43 25
757.661 133.285 -1045.57 64 64 54
316.907 444.128 -1076.31 63 39 20
990.45 49.3716 -1162.67 174 223 232
-17.8706 508.199 -1179.13 169 194 200
1067.3 323.811 -1161.14 195 221 217
186.242 203.318 -1048.53 56 70 66
675.638 547.773 -1167.12 69 84 63
635.406 368.754 -984.842 33 38 21
1007.13 483.935 -1161.94 193 216 220
542.214 73.9831 -990.844 60 56 36
214.878 573.457 -1177.33 84 118 98
610.285 459.218 -1169.89 72 115 109
132.25 293.7 -1175.43 150 178 177
1080.84 -20.829 -1160.26 180 230 229
480.291 129.768 -1008.83 83 80 51
156.475 403.497 -1175.2 152 168 167
1126.63 534.326 -1158.42 35 54 44
-8.4866 34.0959 -1179.42 178 222 226
895.593 428.713 -1162.54 151 202 204
198.265 -72.4849 -1168.52 178 190 182
819.876 149.603 -1168.94 158 195 187
1027.27 -81.4727 -1160.37 210 221 221
259.314 292.423 -1092.53 58 45 21
570.306 493.753 -1173.8 112 155 144
782.222 57.7872 -946.906 51 49 39
759.648 158.15 -1075.06 40 54 41
166.068 48.6882 -1155.46 130 196 203
262.534 312.509 -1102.68 40 44 28
35.7336 -6.54591 -1177.35 189 217 209
130.5 568.471 -1179.24 118 185 194
330.054 598.456 -1177.07 71 98 82
212.451 -1.57786 -1097.27 64 65 50
526.843 333.762 -1005.18 54 53 32
990.944 558.434 -1162.39 161 212 218
197.697 471.603 -1167.41 147 167 159
396.907 24.5824 -1044.55 47 48 32
421.56 189.222 -1010.77 49 49 28
205.02 642.925 -1177.26 110 173 185
357.322 99.4013 -1041.65 39 37 20
595.299 312.505 -1004.05 39 48 33
375.399 437.245 -1174.64 60 91 80
588.263 288.599 -1014.22 55 45 28
635.637 523.034 -1167.88 84 113 97
764.736 363.087 -1148.45 82 85 66
1143.31 522.885 -1169.37 202 219 222
169.825 88.1837 -1173.93 139 187 189
976.07 523.721 -1161.07 160 203 205
458.943 328.655 -1028.28 62 45 29
491.642 368.932 -1020.14 64 53 28
442.158 278.069 -1023.84 54 45 25
1137.44 37.3481 -1162.09 171 222 238
746.166 289.067 -1140.26 52 64 49
166.933 64.0779 -1171.76 159 190 185
407.148 223.417 -1007.16 58 53 29
185.921 253.858 -1087 42 48 37
787.763 390.549 -1051.31 171 184 181
91.7403 443.054 -1178.39 155 185 185
925.46 539.712 -1165.18 156 206 211
990.483 479.653 -1164.25 181 213 218
565.903 -121.335 -1169.11 190 200 191
20.2552 537.941 -1178.87 177 202 197
241.962 183.119 -1060.47 63 59 39
1005.55 597.516 -1162.82 35 54 44
290.551 516.903 -1169.79 58 75 38
20.674 389.431 -1174.37 170 203 209
661.201 396.936 -995.246 61 58 37
537.524 -150.717 -1166.7 181 198 193
845.795 537.856 -1169.41 26 50 26
301.636 458.798 -1174.47 52 87 81
232.48 343.227 -1135.51 60 52 33
400.117 634.499 -1172.51 105 156 154
977.198 322.288 -1164.16 219 242 237
1026.43 441.74 -1156.96 160 216 218
671.066 92.366 -968.092 62 55 33
302.586 266.564 -1062.3 38 41 22
585.223 614.869 -1173.79 123 165 153
576.146 424.671 -1029.16 70 73 51
756.688 345.113 -1152.13 32 52 39
805.116 432.103 -955.958 44 66 57
402.859 53.7202 -1036.49 45 44 27
517.269 294.381 -1016.33 63 53 30
362.776 420.347 -1042.4 62 51 34
250.666 72.9971 -1115.41 49 46 29
150.86 312.242 -1176.22 153 176 170
676.877 369.589 -987.782 66 59 41
224.887 217.261 -1047.87 56 55 35
1062.54 104.019 -1162.84 73 59 40
424.88 513.938 -1174.08 74 104 100
1061.88 493.839 -1161.67 196 217 220
995.543 49.1917 -1161.03 175 223 229
691.712 374.606 -991.634 70 64 50
1051.89 524.65 -1162.18 196 217 220
1086.58 632.742 -1162.6 35 54 44
606.861 368.437 -987.129 62 44 33
952.043 423.358 -1164.61 181 192 188
160.191 308.106 -1175.06 150 174 168
765.836 125.206 -1044.42 49 59 44
425.641 538.172 -1173.01 73 94 67
175.709 313.626 -1160.97 93 111 100
316.363 383.756 -1090.82 62 42 23
930.481 578.959 -1162.49 158 214 215
790.711 83.3369 -991.297 81 74 56
515.335 344.746 -1013.87 49 50 33
536.619 -85.346 -1167.5 183 197 192
834.873 417.039 -949.644 111 131 117
452.332 374.421 -1026.89 67 53 31
701.792 285.586 -1095.04 67 59 40
162.633 -6.65552 -1171.12 191 207 197
47.0417 434.068 -1178.03 162 190 191
945.802 612.639 -1164.6 35 54 44
476.574 393.933 -1030.02 61 55 27
410.957 -71.5021 -1169.02 168 208 217
587.041 268.534 -1011.49 52 44 22
411.523 -140.704 -1169.72 175 190 190
26.1 -57.3921 -1175.52 189 227 227
457.241 287.342 -1021.97 67 56 33
747.568 -111.478 -1164.58 170 187 182
806.788 42.5026 -923.131 58 50 34
666.361 188.899 -1021.35 57 50 31
1125.5 377.927 -1169.14 217 255 251
440.917 573.237 -1172.34 64 70 52
737.702 69.5964 -964.305 93 60 44
982.309 264.416 -1160.42 206 226 222
465.473 169.657 -1014.25 49 46 26
322.089 189.103 -1040.09 50 44 25
242.192 337.895 -1130.51 45 44 26
357.412 -86.421 -1169.51 153 164 157
70.4492 623.741 -1179.98 126 176 189
775.234 521.508 -1168.82 51 43 29
956.988 278.675 -1161.44 196 229 225
412.456 328.775 -1029.82 64 53 28
75.4023 639.515 -1175.44 125 172 189
685.312 314.97 -1057.96 80 78 61
706.341 98.3582 -981.833 63 53 34
924.92 79.1515 -1163.94 160 212 213
67.6077 414.293 -1179.65 158 191 192
1030.59 402.288 -1165.47 188 210 205
437.102 73.2958 -1015.07 53 53 36
881.54 564.615 -1167.25 158 214 215
0.0351984 317.748 -1179.03 170 206 202
567.514 -62.1341 -1167.71 179 192 187
341.043 -20.9338 -1052.44 52 67 51
366.164 123.735 -1045.01 43 42 27
940.978 333.728 -1165.51 168 219 216
22.0273 298.543 -1180.15 137 179 180
592.809 13.4517 -993.382 73 73 56
566.941 333.916 -981.739 66 51 46
562.828 277.617 -1013.17 59 51 31
507.567 158.429 -1002.97 64 62 37
201.746 132.729 -1119.99 50 47 31
448.413 174.767 -1013.64 86 83 53
921.064 279.158 -1164.85 209 237 231
551.016 313.287 -999.771 55 49 36
821.427 51.7386 -932.108 47 50 30
838.078 369.284 -1162.6 183 208 211
451.495 362.701 -1022.29 68 55 30
-23.7473 148.083 -1177.48 175 203 209
375.375 463.814 -1176.44 77 119 115
596.12 523.456 -1170.08 64 59 22
224.813 408.693 -1132.41 42 54 37
386.473 48.7066 -1045.46 45 42 26
426.735 344.026 -1027.15 66 59 32
45.3192 -21.2795 -1178.8 137 204 216
743.062 343.724 -1109.99 63 70 54
847.235 318.88 -1164.34 193 215 213
1014.88 -122.66 -1154.65 103 57 28
821.44 -111.6 -1164.15 192 223 213
1046.37 -162.195 -1157.87 103 57 28
107.347 427.896 -1179.24 148 178 184
135.344 613.828 -1179.74 113 178 189
901.606 298.025 -1162.77 224 252 239
560.441 467.603 -1172.12 80 117 104
922.139 289.044 -1165.31 203 223 222
631.579 75.2034 -968.627 79 77 58
980.325 513.709 -1162.55 165 207 215
218.57 196.485 -1052.56 60 60 36
166.197 433.117 -1175.89 153 176 170
97.2588 -155.963 -1174.6 165 209 207
635.307 374.677 -988.806 33 39 21
250.693 604.041 -1174.61 113 160 157
1077.19 428.325 -1164.84 47 70 59
835.785 334.914 -1163.05 225 253 246
490.464 643.938 -1172.72 119 159 152
1056.98 409.058 -1160.39 192 207 207
947.037 -0.700892 -1164.71 208 221 214
1046.73 147.165 -1164.19 213 246 236
572.358 209.012 -982.842 62 56 38
820.522 96.6693 -1024.51 91 80 56
560.617 604.311 -1172.75 118 162 161
222.094 434.315 -1133.39 60 48 39
886.579 383.038 -1163.68 223 252 250
653.103 342.33 -994.605 58 61 32
265.333 603.497 -1176.19 76 106 90
617.244 9.4768 -989.622 89 92 76
462.513 58.9535 -1017 60 61 40
747.078 379.482 -1010.99 162 187 184
480.865 163.53 -1009.87 52 48 29
32.5262 -47.0429 -1179.37 188 224 221
342.238 63.2786 -1060.35 42 41 23
1030.88 234.75 -1167.2 209 228 227
655.347 624.066 -1169.68 120 176 174
716.247 602.966 -1166.53 95 111 102
576.965 223.829 -976.242 84 73 44
385.245 369.582 -1044.16 34 34 17
1144.34 417.655 -1162.38 202 219 222
209.285 496.831 -1156.48 52 84 61
556.692 342.075 -987.738 51 51 30
236.212 501.711 -1167.3 57 49 26
701.137 96.8444 -977.858 66 58 43
207.975 358.568 -1150.42 57 53 36
1026.13 438.795 -1161.4 190 213 217
1085.63 398.514 -1162.54 161 222 241
420.414 644.069 -1177.58 103 144 138
300.598 507.669 -1175.7 49 51 41
576.681 259.173 -1001.54 51 45 23
661.753 153.402 -991.909 54 49 33
426.636 349.189 -1022.23 67 62 34
476.017 542.718 -1172.57 65 78 65
371.719 82.3678 -1034.86 44 41 25
851.02 329.664 -1168.95 166 215 219
897.07 -171.525 -1161.53 223 221 237
176.138 417.302 -1173.56 143 160 145
421.682 414.434 -1032.65 67 51 30
1057.3 278.596 -1160.23 199 229 226
181.844 135.799 -1121.3 110 127 123
700.693 557.813 -1166.07 78 85 65
665.554 524.216 -1169.19 66 75 53
-7.24422 358.443 -1179.32 160 195 195
92.1265 453.903 -1180.2 151 188 183
767.611 387.997 -991.946 145 158 144
225.868 323.985 -1135.9 57 50 32
901.785 169.467 -1165.08 197 216 210
39.1515 -0.15578 -1181.08 166 186 189
581.021 404.069 -1015.34 55 56 36
376.155 147.586 -1039.35 59 59 38
517.317 185.82 -998.387 56 54 29
662.296 -100.616 -1167.19 174 189 182
1061.94 354.237 -1162.16 189 221 221
618.217 58.1573 -978.266 74 71 43
201.401 337.606 -1156.47 47 56 33
877.089 -66.8561 -1163.15 222 224 228
692.117 -21.7162 -1165.14 182 194 185
997.376 398.505 -1165.1 207 225 220
276.333 648.241 -1177.85 111 169 168
475.42 448.174 -1173.82 53 101 97
71.5287 -96.9874 -1174.11 192 209 207
1041.1 262.314 -1167.27 224 252 249
396.599 48.7814 -1040.24 45 44 27
1061.07 343.627 -1157.04 171 215 212
971.008 525.092 -1162.43 159 204 199
1100.68 355.156 -1164.81 199 224 223
165.041 110.246 -1160.86 122 184 190
392.063 -61.7008 -1167.32 170 187 180
527.917 347.827 -1003.58 66 61 35
541.921 108.948 -981.887 53 50 29
365.395 628.813 -1175.89 103 157 152
280.154 213.323 -1049.4 60 56 32
158.818 265.101 -1158.14 101 161 165
977.229 -21.4688 -1162.43 205 220 213
190.802 438.511 -1155.59 107 153 151
