ply
format ascii 1.0
comment Created by Open3D
element vertex 755
property double x
property double y
property double z
property double nx
property double ny
property double nz
property uchar red
property uchar green
property uchar blue
end_header
302.168 339.798 -1133.72 0.232434 0.0190848 0.127264 41 39 31
179.782 303.357 -1154.68 -0.116099 -0.347791 0.284049 26 32 15
199.978 242.787 -1159.8 0.33169 -0.678818 0.129584 59 66 56
352.423 392.212 -1125.53 -0.526107 0.03261 0.74227 41 33 26
676.288 -52.011 -1148.49 -0.679469 -0.208509 0.703453 116 127 123
778.594 105.305 -1135.93 -0.0205516 0.0233403 0.847842 88 105 98
247.723 120.654 -1160.95 0.0329226 0.150368 0.371531 50 57 51
271.129 371.88 -1146.56 0.0261137 0.0192327 0.824496 44 38 33
221.173 302.231 -1144.51 0.000656196 -0.187817 0.203234 31 27 14
428.179 444.641 -1141.76 -0.0107979 -0.103425 0.757562 44 35 29
191.649 160.494 -1152.81 0.241392 -0.0946506 0.657667 39 42 39
689.791 310.099 -1142.18 -0.295972 0.224944 0.468601 88 85 77
541.006 321.354 -1124.17 0.0455299 0.136632 0.964676 39 47 47
758.216 195.296 -1136.94 0.0751183 -0.00801675 0.923589 102 103 102
470.411 177.97 -1119.02 -0.092351 -0.24953 0.9484 31 42 43
346.926 442.65 -1132.06 0.18091 0.0934336 0.223634 37 37 26
518.091 368.104 -1140.51 -0.00885462 0.767236 0.503172 20 16 8
591.422 90.5389 -1126.39 0.00133457 0.0117904 0.842576 173 174 165
327.595 69.371 -1135.59 -0.0979507 0.176453 0.52246 47 49 46
312.39 130.517 -1149.96 0.191814 -0.115182 0.790921 42 40 31
667.708 450.668 -1134.82 0.0481979 -0.05658 0.728336 56 59 49
279.379 181.008 -1149.42 -0.216387 -0.00517064 0.940417 31 29 21
651.364 -9.61173 -1142.04 0.00606346 0.070343 0.810744 99 115 110
660.709 59.9661 -1140.63 -0.181199 -0.028916 0.777107 96 104 103
278.744 140.793 -1147.01 -0.0353464 -0.140481 0.710601 37 38 29
128.633 67.1307 -1160.47 -0.503136 0.361114 0.47553 53 52 52
698.044 18.2135 -1140.29 0.00592348 -0.500762 0.850495 106 121 115
692.108 329.227 -1140.01 -0.199082 0.127129 0.625064 90 90 83
330.864 219.964 -1146.34 0.0546333 0.101091 0.705174 41 36 26
530.95 240.408 -1114.29 -0.024038 0.0378924 0.978271 29 41 43
659.918 404.282 -1134.87 -0.074414 0.0156172 0.728308 75 70 66
538.437 494.452 -1139.35 0.0450877 -0.0555775 0.730643 60 53 50
641.496 40.092 -1142.55 -0.0256067 0.134013 0.80379 98 104 103
417.911 123.968 -1113.97 0.193292 0.341376 0.14087 67 87 86
218.429 399.787 -1150.48 -0.092351 0.326165 0.495512 28 32 18
381.798 180.233 -1127.36 -0.1327 -0.120064 0.848071 102 103 93
350.768 170.101 -1148.54 -0.24514 0.0231587 0.837109 28 28 27
728.003 125.016 -1139.58 0.000360298 -0.0209423 0.761093 95 99 99
470.647 109.83 -1128.9 -0.146051 0.0116796 0.965256 134 136 130
681.562 199.789 -1140.53 -0.150606 -0.273625 0.674513 105 106 101
134.594 368.593 -1153.16 0.332837 0.0450829 0.285433 14 25 27
587.538 319.615 -1107.55 -0.226962 0.661564 0.714717 24 41 42
540.983 80.6134 -1127.72 -0.0226668 -0.123753 0.970575 161 161 157
490.132 331.158 -1124.94 0.1285 0.012578 0.864076 131 124 105
701.273 212.283 -1136.2 0.0516712 -0.0766235 0.723102 116 118 110
391.361 379.345 -1144.22 -0.0984947 0.0901731 0.82568 55 44 37
310.464 242.437 -1145 0.167917 -0.130824 0.607268 39 33 23
490.969 60.781 -1147.26 -0.000862908 -0.0135798 0.941253 74 68 72
474.613 505.452 -1147.08 -0.0723723 0.633581 0.708129 48 41 40
210.229 241.072 -1151.02 0.00313612 -0.0208292 0.55742 35 44 32
193.663 102.893 -1153.06 0.375797 0.280628 0.577541 39 48 45
713.493 221.376 -1137.22 -0.305514 -0.271021 0.492134 110 113 106
170.922 205.054 -1151.32 0.0234203 0.0116132 0.864037 42 45 43
500.177 100.057 -1127.96 -0.00203151 0.050396 0.959072 149 150 144
582.045 494.879 -1138.15 -0.1494 -0.160409 0.828517 55 58 49
321.111 473.883 -1144.92 0.125585 -0.00913029 0.715905 31 33 28
718.721 149.103 -1137.15 0.0716567 0.168484 0.912648 110 117 105
376.473 28.4391 -1135.86 0.771424 0.069313 -0.600541 138 181 175
468.901 355.229 -1104.2 0.863129 0.446742 0.235435 88 86 67
401.964 379.927 -1145.07 -0.00538079 0.0829795 0.798447 59 50 43
202.149 130.223 -1152.08 -0.0134264 -0.164074 0.680667 42 53 41
659.6 155.041 -1140.34 0.351878 -0.0204721 0.741037 89 77 78
387.721 444.207 -1134.24 0.203954 0.32911 0.422334 53 51 34
313.65 121.835 -1158.79 0.113205 0.236919 0.439522 77 108 115
351.342 374.866 -1131.42 -0.197064 -0.15446 0.466965 34 32 28
320.526 29.9766 -1151.13 0.082982 -0.015653 0.758465 48 55 53
668.193 120.945 -1137.16 -0.171143 -0.0944066 0.674711 98 99 90
273.28 433.366 -1153.53 -0.180999 -0.460599 0.336114 41 35 24
381.134 433.495 -1125.72 -0.00749246 -0.194954 0.202922 38 37 22
337.969 424.505 -1143.8 0.0869768 -0.0699221 0.647951 38 38 30
211.133 368.876 -1152.46 -0.112312 -0.298962 0.521137 38 32 22
341.3 339.666 -1142.72 0.239997 0.0949266 0.509014 31 30 18
451.207 120.486 -1130.1 0.0552625 0.121323 0.925555 122 125 123
410.627 120.321 -1116.14 -0.0371743 -0.27604 0.504787 125 152 149
530.99 328.514 -1122.27 0.0770452 -0.136848 0.702572 36 52 56
331.339 259.402 -1147.11 0.0262183 0.0750835 0.802655 38 35 22
450.72 352.349 -1126.18 -0.106264 0.13176 0.648639 174 164 141
531.475 210.095 -1112.56 -0.0768212 -0.0618774 0.979531 30 40 42
512.397 441.593 -1153.52 0.283278 0.551103 0.526334 64 54 48
143.64 364.805 -1121.9 0.180479 -0.1053 0.0875267 0 22 25
561.126 241.069 -1112.9 -0.101704 0.161774 0.969372 28 39 42
172.275 364.116 -1147.75 -0.0803148 0.00780838 0.657307 28 25 18
174.686 231.279 -1153.99 0.17871 0.126963 0.367601 34 44 35
431.577 270.319 -1105.14 0.204765 -0.151541 0.930017 36 49 52
682.342 210.23 -1139.38 0.39492 -0.111193 0.807217 103 101 95
144.289 183.049 -1171.29 -0.338564 0.109431 0.414879 55 60 57
421.089 160.285 -1124.39 -0.190572 -0.2229 0.933897 37 46 50
428.284 465.044 -1143 0.0809374 -0.114586 0.866612 43 36 31
671.389 0.37374 -1142.74 -0.215136 -0.101542 0.756942 105 122 121
399.124 443.263 -1145.6 0.0541724 0.00376141 0.607057 49 38 29
581.279 390.282 -1134.49 -0.0346215 -0.135633 0.47609 115 112 98
311.603 50.7825 -1150.13 0.00541148 0.196702 0.766566 51 56 56
581.424 330.583 -1124.87 0.157904 -0.187047 0.427345 50 66 63
229.531 351.205 -1154.34 0.0730879 -0.193579 0.107984 29 31 16
380.581 320.16 -1133.24 -0.565251 -0.359992 0.395739 74 62 44
543.191 313.001 -1099.06 0.1431 -0.793401 -0.561018 31 40 36
282.615 481.806 -1147.24 0.496466 -0.073961 0.54303 25 26 14
370.936 109.479 -1139.17 -0.296508 -0.129166 0.438239 170 227 220
720.02 110.323 -1145.35 -0.0838928 0.0234568 0.485625 111 128 129
521.116 190.395 -1113.85 -0.113471 -0.0495941 0.974575 31 42 45
262.029 22.3306 -1143.24 0.231164 -0.449761 0.862716 74 58 55
574.08 425.85 -1148.41 0.289455 -0.0212039 0.451547 59 41 32
292.72 319.381 -1143.96 0.0605989 -0.0767836 0.469539 36 32 22
497.833 424.121 -1143.49 0.293261 -0.100491 0.574737 82 76 68
460.91 170.623 -1120.45 -0.023322 -0.175178 0.969202 30 40 44
590.999 279.779 -1116.99 -0.0134727 0.228069 0.963366 25 40 43
360.342 289.075 -1130.84 -0.473537 -0.0652045 0.601668 90 90 60
258.654 424.374 -1143.66 -0.0199767 -0.0538089 0.674346 26 32 24
663.798 140.183 -1139.25 0.378392 -0.0770206 0.773877 178 172 169
299.484 410.781 -1152.24 -0.405407 -0.657581 0.557115 39 32 22
611.74 109.993 -1125.08 -0.215252 0.072421 0.833073 177 177 168
178.609 159.963 -1132.57 -0.172403 -0.167711 0.415219 23 61 73
499.037 18.1453 -1148.99 -0.0239701 -0.0920408 0.928636 104 102 104
355.144 221.432 -1132.41 -0.564857 0.16561 0.638024 140 142 131
769.512 341.134 -1135.44 0.0153812 -0.0334514 0.723418 77 75 64
600.862 130.508 -1104.32 -0.157714 -0.193547 0.947886 144 157 162
667.923 12.3697 -1154.84 -0.0898573 -0.0637527 0.729157 242 250 239
462.23 38.65 -1148.77 0.0533756 -0.036046 0.969154 66 57 57
650.884 26.912 -1148.4 -0.187483 0.231341 0.233625 242 250 239
246.804 444.774 -1148.55 -0.111752 0.26918 0.714888 32 28 20
238.366 97.7978 -1141.33 0.202098 -0.317486 0.0884879 53 62 57
375.806 302.766 -1105.58 -0.927297 -0.349272 0.134648 92 83 62
310.236 404.525 -1145.76 0.0321829 0.0181321 0.724779 48 37 35
570.655 270.761 -1116.14 0.00264334 0.0929913 0.981032 25 41 43
206.856 -38.5562 -1169.06 -0.420349 0.859826 0.289838 51 46 44
361.104 50.5029 -1149.38 0.0947535 -0.0404261 0.89039 61 58 60
710.914 282.514 -1133.65 -0.166356 0.046754 0.309352 100 99 92
267.145 486.638 -1148.79 0.297909 0.277333 0.05942 19 30 24
678.131 364.293 -1138 -0.146886 -0.122789 0.817805 71 59 50
616.903 148.701 -1103.19 0.136801 -0.00120002 0.786678 156 181 181
431.495 349.719 -1125.61 0.0308306 0.000521927 0.78664 159 150 128
191.64 230.465 -1150.34 0.102204 0.337942 0.705299 36 52 41
190.634 334.66 -1146.75 0.100342 0.019808 0.845017 33 30 21
618.457 414.538 -1140.36 -0.303162 0.288393 0.465692 89 93 88
160.79 191.435 -1155.85 0.213535 -0.159531 0.316706 50 54 53
223.382 -19.2701 -1144.38 0.0728173 -0.263425 0.339733 51 46 44
565.721 414.402 -1123.46 -0.240946 -0.886544 -0.394949 98 95 81
610.865 410.066 -1131.73 -0.221274 0.0790291 0.263756 94 98 92
450.492 31.0748 -1148.65 0.00481269 0.0372189 0.955919 61 50 51
648.66 500.516 -1136.1 -0.206188 0.228822 0.636986 56 61 49
290.544 100.844 -1150.59 0.00536464 -0.0206394 0.750608 49 52 45
401.202 315.057 -1132.39 0.0301276 -0.349411 0.877532 102 99 85
700.065 131.047 -1136.33 -0.0967618 -0.120566 0.649851 99 103 97
220.503 270.116 -1152.65 0.031681 0.00872512 0.494589 32 34 24
241.572 271.216 -1150.39 -0.080104 0.0856134 0.773395 39 40 30
591.37 250.265 -1111.9 -0.0463161 0.148109 0.980128 27 44 45
329.958 331.202 -1146.43 -0.168968 0.0837389 0.702361 43 35 25
520.868 240.437 -1113.11 0.0232703 -0.0015342 0.968508 33 45 47
589.685 428.578 -1148.9 0.161916 0.72546 0.56323 62 51 40
341.777 388.298 -1097.7 0.484214 0.0427742 -0.293885 37 38 30
431.091 142.077 -1127.76 0.0135292 -0.236631 0.953292 34 45 47
148.57 69.9454 -1145.56 0.206611 0.0745621 0.564812 53 52 52
758.871 385.071 -1133.48 -0.0987156 0.0232255 0.739784 73 57 51
321.009 342.803 -1135.19 0.0403361 0.216138 0.590098 46 51 47
301.26 80.1086 -1149.66 0.0673287 -0.0450095 0.879044 41 40 35
367.856 421.648 -1130.24 0.141289 -0.142476 0.218963 37 36 34
521.053 150.653 -1116.09 -0.134435 0.00246046 0.969426 31 41 46
388.455 502.612 -1142.03 -0.170578 -0.347786 0.690088 30 34 26
291.159 111.881 -1149.76 -0.029371 0.146782 0.778475 49 48 44
637.388 494.676 -1133.89 0.124274 -0.144061 0.640052 56 63 55
230.951 -29.9364 -1145.35 0.0505576 0.0220687 0.430237 51 46 44
328.042 179.118 -1148.72 -0.279591 -0.184679 0.883275 41 34 28
225.425 -30.1624 -1146.27 -0.0408917 -0.165811 0.363159 51 46 44
651.247 384.342 -1140 0.0599831 0.393087 0.659622 99 105 93
711.925 251.296 -1141.74 -0.0854218 -0.198282 0.613681 99 96 88
373.723 340.619 -1133.99 0.281374 0.228646 0.467549 86 73 46
638.848 441.062 -1135.19 0.161193 -0.173346 0.641112 77 80 75
319 454.141 -1140.96 0.21295 -0.0528115 0.623457 29 33 23
220.75 189.337 -1151.15 -0.104318 0.157209 0.677179 38 43 33
252.616 98.1407 -1146.99 0.128472 -0.166989 0.499991 44 59 53
180.829 251.349 -1143.53 -0.00405978 -0.0289815 0.277566 38 42 32
249.09 314.753 -1117.96 0.673293 -0.481559 -0.56105 27 34 10
248.103 129.998 -1160.92 0.155698 0.0411735 0.395664 41 51 40
161.733 73.2276 -1172.76 -0.000993873 0.823245 -0.567686 23 61 73
272.734 329.354 -1142.27 0.526037 -0.133704 0.161965 33 37 14
299.134 415.465 -1136.1 0.0805837 -0.0306788 0.0660641 44 43 30
458.417 502.337 -1141.7 0.0377091 -0.144452 0.827809 50 39 40
210.095 402.926 -1146.39 0.384037 -0.0340178 0.446316 28 35 22
631.173 431.919 -1139.23 0.073626 -0.373686 0.276652 95 99 93
407.597 25.5196 -1105.12 -0.17119 0.687415 -0.173405 133 173 170
666.673 181.539 -1148.97 0.309593 -0.465177 0.726998 241 249 238
510.944 40.3017 -1147.4 0.0213181 -0.00519938 0.945063 85 77 79
669.97 230.453 -1139.29 -0.0723316 0.012297 0.827455 96 90 88
750.31 301.99 -1137.27 -0.0213541 0.318926 0.770323 93 86 83
371.368 50.7303 -1146.11 -0.0403498 -0.120838 0.710604 161 175 172
441.203 100.167 -1129.05 -0.0110466 0.010705 0.957177 135 138 130
420.841 -49.2341 -1149.28 -0.0167457 0.0588775 0.726829 43 31 24
301.238 -18.2911 -1151.78 0.0693464 0.112961 0.601294 39 50 41
346.533 416.633 -1118.65 0.346364 -0.170442 -0.0254843 39 35 36
398.235 424.858 -1142.91 0.086051 -0.190197 0.798042 54 45 40
302.96 474.836 -1177.5 0.843737 -0.0603907 -0.53335 40 37 21
778.709 109.764 -1138.02 0.00631063 0.0278955 0.770041 89 105 100
221.05 241.03 -1146.99 0.171399 -0.0555294 0.594463 36 44 31
490.837 320.555 -1114.53 0.114581 0.113878 0.888435 42 56 61
134.716 163.907 -1154.29 0.690441 0.0955859 0.544051 37 45 43
340.627 -20.5759 -1147.81 -0.219402 0.205233 0.76242 43 52 50
339.311 342.373 -1136.09 -0.152644 0.108561 0.453311 44 29 16
389.844 490.156 -1141.75 0.0227327 0.0426203 0.803993 34 35 30
620.998 30.0845 -1143.38 -0.0863775 0.0152821 0.86986 96 99 99
527.977 454.879 -1140.82 -0.0280799 -0.0182499 0.895195 63 56 54
657.372 354.756 -1134.89 0.70937 0.00809727 0.552631 131 124 122
662.545 142.337 -1135.6 0.299478 -0.22711 0.654516 171 170 161
390.736 -49.0407 -1151.55 -0.0157657 -0.0260463 0.724763 41 37 35
219.12 315.424 -1136.81 0.893189 0.251779 -0.372586 25 27 11
376.094 162.915 -1138.84 0.630065 -0.168431 0.48304 161 220 217
650.308 210.039 -1120.88 0.0996601 -0.135301 0.403644 204 202 179
408.417 464.983 -1142.31 0.063689 -0.249904 0.88556 38 32 25
610.949 430.259 -1140.98 -0.125681 0.00824479 0.360368 102 102 94
628.541 396.793 -1142.49 -0.526694 -0.194764 -0.126881 104 110 100
251.235 70.34 -1159.88 0.24125 -0.109624 0.451483 62 62 63
171.294 124.712 -1153.3 0.216727 0.0736193 0.742583 47 53 54
166.589 131.008 -1143.57 0.187983 -0.125143 0.278563 23 61 73
549.263 -42.3133 -1127.85 0.321039 0.496794 0.806306 80 80 84
317.514 107.297 -1158.48 0.123003 0.207796 0.234744 75 110 108
382.823 -25.6379 -1146.78 0.103507 -0.512728 0.6675 62 66 55
258.068 460.238 -1143.75 -0.0426844 -0.0831649 0.534169 23 27 18
369.639 442.058 -1131.8 0.0377105 -0.187168 0.156345 38 36 28
202.984 278.168 -1145.12 -0.117573 -0.25293 0.417665 33 33 24
302.277 -7.11023 -1147.68 0.144744 0.0250755 0.759883 38 49 42
221.831 290.515 -1152.16 0.320175 0.144177 0.300065 31 32 20
212.127 214.426 -1132.52 0.073825 -0.0157778 0.219151 47 47 44
348.991 360.499 -1145.19 -0.33155 -0.0303798 0.67967 34 29 22
483.013 99.5673 -1127.9 -0.0905651 -0.0636986 0.940698 142 145 137
132.94 98.1593 -1145.99 0.934757 -0.291212 0.0571929 53 52 52
142.038 70.5653 -1153.81 -0.00845957 0.108849 0.399804 53 52 52
558.641 368.712 -1139.03 -0.0918795 0.760826 0.581284 20 16 13
573.258 355.073 -1122.04 -0.0715501 -0.201661 0.509645 239 246 235
267.752 59.7491 -1161.43 0.159944 -0.100586 0.286797 71 69 81
767.989 174.962 -1136.71 -0.133679 0.00936519 0.861022 102 112 110
684.007 312.938 -1107.23 -0.201527 0.488777 0.45193 85 86 78
403.553 442.877 -1134.16 0.0314324 -0.0316847 0.326857 61 48 54
581.019 200.476 -1106.55 -0.159829 0.0735919 0.954584 38 50 53
210.255 86.3859 -1160.85 -0.619111 -0.405641 0.671693 47 43 32
172.064 213.137 -1143.11 0.725504 0.187132 -0.531188 58 58 63
258.722 65.0783 -1162.25 0.0668806 0.127989 0.234449 71 73 68
551.803 419.335 -1135.58 -0.0843017 0.107312 0.609094 99 99 95
534.018 -7.01997 -1148.73 -0.0026893 0.12598 0.952245 88 84 88
308.524 415.046 -1142.84 -0.0575036 0.0374144 0.622768 34 34 22
421.665 120.563 -1130.01 0.114968 0.183179 0.914922 128 130 126
469.229 435.086 -1142.82 0.041104 -0.0195237 0.809472 63 53 50
231.619 309.288 -1150.16 0.0861297 -0.176527 0.487447 34 34 27
508.227 474.59 -1142.12 -0.020637 -0.0705597 0.921107 54 48 45
438.069 252.396 -1108.05 0.226439 -0.0591898 0.96039 38 52 53
269.345 99.224 -1146.93 -0.101564 -0.0822164 0.594547 44 47 42
321.492 340.824 -1145.94 0.144378 0.230946 0.700961 45 34 31
367.895 204.297 -1118.09 0.125574 -0.26413 0.335305 96 98 86
502.374 100.985 -1129.21 -0.014968 0.0298855 0.961034 137 139 131
461.503 240.13 -1111.94 0.133068 -0.0348225 0.978795 34 45 48
380.259 290.425 -1123.53 -0.134759 -0.0734091 0.379711 85 80 54
323.031 440.103 -1125.55 -0.422059 -0.707769 0.309874 37 33 27
759.158 204.459 -1136 -0.076715 -0.0644963 0.842074 102 105 105
767.918 184.861 -1136.97 0.0697046 -0.0271554 0.903677 100 104 100
491.328 280.284 -1113.15 0.117422 0.0165914 0.97576 29 44 47
561.415 60.6818 -1144.46 -0.0377351 -0.0230343 0.95129 85 78 81
412.19 403.529 -1143.98 -0.0283075 -0.0999331 0.591826 61 49 53
697.933 405.307 -1138.86 -0.0850342 0.126274 0.612522 86 90 80
530.57 373.05 -1133.53 -0.212149 0.734404 0.481937 180 174 156
272.199 231.456 -1149.71 0.021536 -0.0892346 0.647895 32 29 22
210.675 184.407 -1135.1 0.0260063 -0.08674 0.173273 54 65 66
135.563 160.496 -1177.41 -0.355907 0.589007 0.113792 23 61 73
460.643 369.002 -1131.63 -0.32634 0.574199 0.58654 145 138 119
378.18 169.51 -1125.94 0.103734 0.368866 0.732403 111 117 107
277.807 330.569 -1152.34 -0.529468 -0.405421 0.37438 36 30 23
681.071 191.625 -1141.61 -0.068645 0.139075 0.619473 110 113 107
541.33 50.7312 -1145.94 -0.0755844 0.00902713 0.875701 96 89 92
792.131 107.461 -1135.85 0.0304552 -0.0533015 0.778281 100 110 106
280.638 129.434 -1147.27 0.0636458 0.070527 0.731074 33 32 24
669.321 311.43 -1125.24 -0.119461 -0.499983 -0.0474394 84 82 73
328.296 1.52651 -1143.53 -0.245988 -0.141407 0.545815 44 59 47
600.622 140.175 -1102.11 -0.0305798 -0.230095 0.920285 102 108 110
297.212 494.198 -1135.36 0.189731 -0.0355396 0.355121 24 29 20
290.928 170.605 -1147 0.0969842 -0.135411 0.725154 36 33 25
261.574 312.442 -1151.86 -0.0261068 0.0514195 0.786794 29 31 18
401.048 410.07 -1140.72 0.0545991 0.0967443 0.733303 61 47 47
618.546 424.142 -1138.38 0.144027 -0.465609 0.393467 82 85 79
336.248 67.667 -1134.35 0.226288 0.225174 0.129835 46 56 47
200.914 340.738 -1142.94 0.325061 -0.365942 0.02852 27 32 18
171.11 134.849 -1152.4 0.192036 0.0757297 0.820729 43 52 51
216.581 123.159 -1132.4 0.046923 0.327466 -0.0732903 50 66 64
309.573 369.337 -1153.87 0.529223 -0.15525 -0.0112486 40 34 23
671.715 219.774 -1135.8 -0.133682 -0.0901432 0.729335 98 96 90
651.529 250.557 -1120.45 0.275583 0.000959681 0.518978 189 189 165
298.169 415.288 -1144.05 0.204489 0.119307 0.715019 30 32 23
691.986 211.633 -1136.78 -0.057945 -0.256577 0.762087 111 109 99
680.953 151.079 -1137.07 0.0784154 -0.152081 0.797294 100 109 105
534.189 28.2421 -1131.12 -0.154254 0.466301 -0.177072 242 250 239
698.572 506.42 -1162.08 0.625016 0.481081 0.601165 60 69 60
721.357 259.96 -1142.09 0.167395 -0.268579 0.474226 101 102 91
681.906 140.204 -1136.34 0.0740151 0.110391 0.828034 99 105 103
283.64 179.99 -1147.53 -0.214652 -0.0349803 0.907849 31 27 17
470.908 160.186 -1121.32 -0.124522 -0.131918 0.970014 28 39 41
248.434 420.411 -1144.22 0.123581 -0.0830054 0.623558 27 31 22
608.364 173.47 -1116.93 0.989365 -0.0833427 -0.0867647 98 96 105
630.17 290.978 -1122.14 -0.0336254 -0.00327304 0.304468 170 172 152
218.927 44.46 -1147.87 0.222755 0.053995 0.315784 35 42 42
271.316 20.5006 -1151.46 -0.000575486 -0.135283 0.791551 37 46 42
514.24 90.1966 -1115.93 -0.599394 -0.245736 0.267068 242 250 239
192.052 281.121 -1153.78 -0.00740653 -0.0584444 0.449364 36 36 26
410.25 51.1914 -1147.71 0.117156 0.117166 0.909283 75 68 66
312.328 191.1 -1146.3 0.0555139 -0.130966 0.763579 42 35 29
265.699 306.882 -1125.29 0.879001 0.459225 0.128333 23 28 16
659.378 165.286 -1140.55 0.231165 0.0379384 0.758763 81 63 65
652.023 299.544 -1123.94 0.228629 -0.260904 0.268355 188 185 169
511.605 300.346 -1116.93 0.172554 0.0806131 0.967065 36 47 48
397.643 92.5501 -1114.62 0.159565 -0.0966077 0.171345 131 174 170
301.451 190.787 -1146.88 0.0178857 -0.22496 0.757646 50 49 40
699.29 321.115 -1135.09 -0.337389 0.0507216 0.32975 95 97 93
349.114 140.698 -1142.88 -0.392876 0.0861787 0.749792 55 57 51
528.76 368.348 -1139.64 -0.0532579 0.725053 0.560632 17 14 8
369.421 425.272 -1149.84 0.57398 0.17341 0.137693 47 42 29
309.573 252.384 -1149.57 0.0259169 0.142461 0.763363 38 31 22
261.613 81.0965 -1145.89 0.0731906 -0.0268129 0.44901 42 46 41
201.619 392.443 -1145.64 0.0232868 -0.273537 0.446581 29 26 30
491.135 130.269 -1124.84 -0.129629 -0.384936 0.843751 151 167 174
290.148 434.158 -1150.31 0.06469 -0.0209584 0.412025 34 34 25
222.342 211.468 -1151.23 0.191905 0.00932663 0.610699 39 46 35
531.296 10.6216 -1147.51 0.0117637 -0.0429774 0.975905 83 79 83
362.744 211.605 -1127.21 -0.325964 0.146748 0.680985 102 100 89
728.795 370.006 -1137.76 -0.0377853 -0.00217207 0.805916 76 71 67
755.966 62.5319 -1122.5 -0.0826362 0.823516 -0.205227 83 90 85
481.345 110.716 -1128.79 -0.0213256 0.040594 0.956141 135 136 129
291.13 342.367 -1125.68 -0.0922816 -0.0316487 0.245174 36 30 25
202.006 142.823 -1158.92 0.309721 0.29028 0.193857 44 53 49
468.403 368.045 -1141.77 -0.134675 0.595139 0.622516 20 14 8
290.089 271.677 -1135.49 -0.466575 0.00522066 0.808708 50 49 41
364.252 15.0196 -1115.24 0.10847 0.83931 -0.532722 44 65 52
310.523 41.7464 -1147.8 0.00519223 -0.104884 0.878784 48 54 51
551.47 349.253 -1122.81 0.0337788 -0.00185865 0.656577 197 203 190
650.513 367.809 -1131.05 0.429978 0.593793 0.187328 124 118 114
341.615 260.361 -1145.97 -0.00574586 0.171588 0.879404 29 27 16
683.381 -20.1956 -1136.24 0.00631053 0.317466 0.625497 114 130 122
349.553 260.467 -1145.59 -0.323407 0.262848 0.689673 55 55 48
696.24 88.8674 -1155.4 -0.277916 0.0910966 0.0953308 102 129 127
641.065 423.546 -1139.27 -0.0318147 -0.219759 0.345789 91 99 91
202.587 312.089 -1153.22 0.310559 0.172471 0.164942 25 31 20
279.614 480.487 -1135.05 -0.0154202 -0.0648397 0.494351 21 27 18
204.923 82.0897 -1145.33 -0.0677449 -0.181087 0.547273 31 37 29
640.896 44.8649 -1149.09 -0.360365 0.171564 0.1594 242 250 239
372.889 231.498 -1129.44 0.281559 -0.0196118 0.642783 94 92 75
550.133 413.901 -1134.15 0.121351 -0.0952916 0.57548 95 92 89
371.125 90.1195 -1124.7 -0.076331 -0.161198 0.621495 126 155 152
348.706 330.694 -1141.6 -0.278269 -0.1035 0.635708 17 20 13
133.353 65.4212 -1152.42 -0.0210782 0.338845 0.274425 53 52 52
768.449 121.842 -1136.49 -0.102173 0.0441298 0.835294 88 98 99
208.882 297.969 -1158.85 -0.00286139 -0.291955 0.321669 49 48 46
430.876 160.085 -1123.64 -0.0195212 -0.217555 0.966923 33 42 46
198.476 264.894 -1159.02 0.0656709 -0.116794 0.302375 63 74 50
758.195 336.61 -1147.12 0.0462542 0.683395 0.727273 96 90 88
624.055 327.438 -1115 -0.145408 0.188666 0.301233 154 159 136
220.748 301.838 -1159.96 -0.196767 0.222549 0.744526 35 40 29
437.984 440.747 -1145.84 -0.025633 0.173747 0.764623 56 52 52
621.305 119.047 -1112.44 0.374772 -0.356189 0.418107 189 202 199
191.559 371.471 -1146.38 -0.0537434 -0.0538957 0.573346 30 27 23
213.498 32.1368 -1145.77 0.759452 -0.181546 -0.418328 42 52 53
318.543 434.596 -1141.64 -0.194348 0.128711 0.743537 33 34 27
300.847 321.69 -1144.5 0.284459 -0.339077 0.450084 43 41 33
372.065 340.014 -1124.47 -0.173508 0.18448 0.579964 96 85 62
652.978 335.625 -1139.07 0.991878 0.0224492 0.0821411 89 61 67
441.483 -29.8306 -1149.91 0.105948 -0.00495659 0.859403 57 48 43
252.234 218.695 -1151.55 0.186863 -0.212351 0.660261 32 31 21
430.927 380.522 -1140.94 -0.0109276 0.304448 0.807808 61 51 43
542.834 433.424 -1141.96 -0.0364383 -0.324556 0.500095 93 95 92
428.39 490.379 -1141.86 0.0860074 -0.0344239 0.798337 41 30 32
581.786 365.069 -1122.88 0.0407822 0.210327 0.386313 229 235 223
210.112 138.3 -1147.27 0.0818425 0.350629 0.39435 44 49 43
260.456 318.218 -1151.31 -0.472741 -0.388699 0.590507 29 30 17
280.02 301.336 -1135.51 0.50949 -0.0911981 -0.167811 31 31 23
241.741 439.342 -1163.89 0.0801984 -0.168148 0.450216 40 36 25
203.353 229.949 -1142.78 -0.188092 -0.119633 0.619507 34 48 36
510.633 160.459 -1116.54 -0.171215 0.0105569 0.960976 36 48 51
511.233 329.763 -1120.85 0.101479 0.00275547 0.857392 46 54 53
489.227 108.76 -1128.18 -0.00252279 0.0323674 0.960624 148 150 143
260.312 502.485 -1144.85 0.0542501 0.0395947 0.479159 16 23 7
280.006 330.96 -1134.55 -0.0974674 0.156663 0.511186 31 33 25
270.428 339.813 -1143.45 0.24309 -0.10819 0.291264 32 34 16
257.416 451.348 -1151.67 0.0490952 0.0296358 0.415189 33 32 25
298.432 428.123 -1133.58 -0.0575222 -0.374746 0.201095 39 42 34
391.095 280.874 -1129.94 0.0640384 -0.145953 0.536087 75 70 47
201.088 330.485 -1151.3 -0.0612785 0.00139758 0.634418 28 32 18
418.035 335.355 -1129.34 0.176598 -0.246338 0.873594 115 120 110
310.657 24.2803 -1131.25 -0.0859512 0.15384 0.259786 61 58 59
349.46 300.811 -1146.11 -0.242661 0.224116 0.772979 50 49 36
613.308 194.3 -1127.35 0.0648631 -0.106289 0.958971 130 130 128
147.049 342.591 -1164.24 -0.0204766 -0.836378 -0.545637 25 31 21
519.961 349.176 -1132.57 0.0782015 0.183948 0.252306 104 117 112
480.042 120.339 -1129.4 -0.0887269 -0.0494922 0.910278 115 120 119
233.196 200.15 -1144.25 0.0246669 -0.121074 0.311209 31 36 28
680.973 488.157 -1135.81 -0.0942445 0.0247125 0.652616 59 68 57
410.871 270.619 -1104.02 -0.169317 -0.0987589 0.934815 139 155 156
431.278 80.2759 -1130.84 0.0209992 -0.0564626 0.950392 138 141 140
613.133 35.5161 -1133.87 -0.00576787 0.65514 0.334044 206 224 217
601.822 70.9243 -1131.82 0.0195461 -0.940166 0.226726 199 202 196
656.963 194.103 -1127.56 0.727103 0.180957 0.662251 243 243 208
218.833 150.727 -1160.91 0.688102 -0.722119 0.0711288 63 71 58
291.341 454.272 -1158.58 -0.13349 -0.192466 0.409582 38 38 23
610.881 444.283 -1138.37 -0.436842 -0.076166 0.705508 72 74 74
449.913 400.392 -1134.12 -0.104372 0.0267802 0.424823 54 50 44
357.136 16.1016 -1132.88 0.246038 0.11455 0.2169 115 142 130
341.119 -47.9778 -1149.78 0.0102566 0.0499368 0.715687 44 53 49
380.885 220.033 -1124.95 0.0940199 -0.215319 0.592527 86 85 68
258.637 339.116 -1151.47 0.13859 -0.033568 0.337079 32 25 23
569.367 87.5242 -1108.52 -0.0406572 -0.0020811 0.183234 242 250 239
441.302 299.982 -1104.63 0.153588 0.00271882 0.96735 34 43 49
612.865 324.059 -1128.45 0.278891 0.157925 0.947248 97 116 104
379.62 281.536 -1130.45 0.0624117 0.273287 0.706168 81 78 54
388.484 150.033 -1081.73 0.0396901 0.798959 -0.528871 169 228 227
310.575 69.6987 -1147.99 0.0691706 0.0127954 0.946551 44 44 41
259.621 236.549 -1151.15 -0.0425137 -0.799056 0.362934 28 25 15
730.156 339.819 -1140.38 -0.199604 0.0501426 0.601576 95 93 84
219.713 340.134 -1144.26 0.0989959 -0.032942 0.180938 34 29 21
631.124 100.522 -1124.48 -0.175296 -0.123529 0.88026 191 197 187
498.948 370.798 -1132.13 0.114604 0.570691 0.581014 138 126 110
390.014 166.617 -1084.52 -0.577878 -0.139644 0.493317 168 221 216
320.29 80.7288 -1159.1 -0.122262 -0.186606 0.652849 68 86 89
682.829 350.744 -1146.51 -0.0312702 0.0680863 0.381448 86 82 73
251.226 110.061 -1151.64 -0.0200251 0.164808 0.772789 35 41 32
350.889 184.667 -1149.1 -0.289941 -0.0111253 0.82507 28 27 27
641.212 50.1607 -1141.51 -0.00465766 -0.220426 0.82457 100 104 101
345.177 499.002 -1135.3 0.0467796 -0.346185 0.56651 23 34 23
490.817 300.982 -1113.63 0.213682 0.0458199 0.965136 30 44 49
658.598 404.697 -1138.98 -0.0933681 0.0083342 0.695585 76 74 69
387.897 434.678 -1142.53 0.088144 -0.0140097 0.68366 52 48 44
740.714 129.401 -1136.77 -0.0476744 0.0626067 0.793271 99 111 108
203.193 79.9736 -1153.39 0.315404 -0.236509 0.230826 32 38 32
389.774 132.113 -1126.66 0.0360346 -0.0466627 0.789817 121 128 118
678.065 289.886 -1141.08 -0.422084 -0.26491 0.378445 94 91 87
272.771 331.01 -1160.54 0.774876 0.504316 0.381093 32 35 17
212.939 321.763 -1144.1 -0.340043 -0.113983 0.728956 28 29 18
749.284 154.322 -1137.28 -0.145077 -0.0110135 0.844851 98 104 105
306.918 501.901 -1136.2 -0.299707 -0.119415 0.818132 19 28 21
601.924 340.416 -1111.56 0.113981 -0.011108 0.439496 213 217 185
571.197 79.9923 -1127.48 -0.0477781 0.0684755 0.968801 176 177 170
371.085 280.623 -1129.9 0.19459 -0.202828 0.569218 94 88 61
619.764 272.237 -1115.97 0.115322 -0.488833 0.387282 147 154 143
458.638 325.121 -1130.22 -0.0529254 0.219861 0.842138 66 66 55
591.372 -55.324 -1147.51 0.0671633 -0.192628 0.884524 83 88 88
308.807 330.153 -1153.84 -0.0132955 -0.167529 0.244064 44 42 34
401.42 334.992 -1128.52 -0.110702 -0.0175548 0.842586 138 129 103
687.841 372.565 -1138.12 -0.208516 -0.287869 0.727023 71 59 53
260.309 419.886 -1159.8 0.225038 -0.061253 0.388861 40 40 24
797.904 316.406 -1137.27 0.249315 0.272751 0.883583 80 75 64
652.041 395.304 -1140.88 0.177544 -0.116012 0.544613 94 99 88
660.26 -19.18 -1142.11 -0.0281033 0.0587734 0.691426 104 121 119
758.217 119.962 -1138.84 -0.200316 0.0393492 0.779723 83 85 84
768.287 271.182 -1136.49 0.0531146 -0.029625 0.899607 70 57 49
259.929 60.9241 -1132.1 -0.018655 -0.177993 0.261169 69 54 53
513.673 -16.6332 -1147.98 -0.115509 -0.199201 0.964314 78 74 75
317.486 411.927 -1144.75 -0.321275 0.0978636 0.634632 47 41 34
188.324 82.8909 -1162.87 -0.294603 0.348429 0.379892 46 62 58
451.068 250.772 -1110.26 0.0931739 -0.110899 0.966968 35 47 50
481.675 320.295 -1113.49 0.256341 0.156679 0.932896 45 56 56
407.366 184.72 -1130.03 -0.932538 -0.0131198 0.252528 98 103 103
341.157 249.619 -1144.1 0.0943661 -0.119922 0.729592 30 28 19
480.925 280.169 -1111.99 0.136679 -0.020441 0.969896 30 45 47
420.877 138.369 -1129.82 -0.145665 -0.431377 0.867938 60 71 80
380.355 11.2342 -1133.76 0.136082 0.409415 -0.161364 132 173 169
368.35 31.2901 -1136.21 -0.57743 -0.0327127 0.796631 133 171 165
591.064 354.938 -1122.28 -0.0287509 0.402642 0.52703 236 243 228
301.632 403.505 -1145.66 0.0866289 -0.168802 0.673154 49 41 35
448.646 124.768 -1112.51 -0.269495 0.336741 0.0119857 57 71 73
261.947 319.543 -1143.94 0.160424 -0.136942 0.346052 29 29 16
721.483 270.43 -1143.41 0.0644713 -0.00395975 0.476739 94 94 82
544.5 106.985 -1115.46 0.16005 0.00160816 0.421783 242 250 239
521.515 310.339 -1119.26 0.133453 0.0930835 0.967692 28 47 47
407.602 104.836 -1114.95 0.240571 -0.148112 0.202986 134 163 162
551.003 50.8511 -1145.53 0.0215544 -0.0675792 0.957027 92 85 88
304.051 101.756 -1134.65 -0.000626903 0.139139 0.351656 67 77 76
259.317 100.415 -1146.64 0.10419 -0.0338348 0.482621 41 44 38
447.896 494.79 -1142.45 0.060026 0.214938 0.770544 42 37 30
670.699 -39.6794 -1142.31 -0.029897 0.146418 0.510003 109 124 126
241.765 212.066 -1147.12 -0.0807198 -0.226109 0.644277 29 33 21
317.91 129.321 -1149.73 -0.427912 -0.0592804 0.824797 44 37 28
440.498 419.965 -1132.94 -0.135872 0.0858736 0.143285 76 60 50
459.883 380.498 -1141.31 -0.338716 0.0956255 0.680906 80 70 63
692.305 483.746 -1141.06 0.167355 -0.151189 0.651164 60 67 59
376.882 161.448 -1102.12 -0.66074 0.528324 0.533194 182 233 236
592.253 440.827 -1143.89 0.0874525 0.0466374 0.439925 100 95 81
491.053 230.038 -1113.39 0.0726645 -0.0233039 0.957843 33 43 43
320.783 230.187 -1146.33 -0.0387535 -0.0229031 0.729227 42 32 23
359.142 440.012 -1160.12 -0.330876 0.0845379 0.58388 46 41 32
271.472 424.071 -1159.53 0.0151133 0.0578743 0.349796 42 41 26
251.662 209.935 -1129.85 0.74934 0.0173302 -0.661959 74 51 48
255.284 -43.9581 -1137.81 0.917116 0.275585 -0.288015 51 46 44
668.422 493.828 -1131.9 -0.164481 -0.123851 0.380073 54 61 52
230.319 393.026 -1142.47 0.238675 -0.0892124 0.506315 35 31 24
248.073 456.417 -1150.28 0.156142 -0.385402 0.468413 32 29 20
268.601 279.206 -1150.05 -0.564244 -0.118858 0.693009 37 36 20
610.547 230.853 -1108.97 0.148628 0.125982 0.931275 125 136 132
620.175 302.512 -1121.38 -0.388947 0.444717 0.511279 146 161 146
173.612 210.631 -1154.97 -0.0351361 -0.162949 0.467489 39 45 41
320.53 362.322 -1144.48 -0.127152 -0.31974 0.290701 44 33 31
709.536 320.015 -1124.52 -0.160484 0.0174255 0.0884898 96 93 87
760.191 100.316 -1137.19 0.0304011 0.0338273 0.766902 87 87 89
296.823 358.065 -1160.14 0.0236764 0.00466009 0.448266 41 45 20
468.688 502.448 -1142.17 0.0781289 -0.233307 0.573578 52 43 39
451.724 131.362 -1109.1 -0.0581818 0.461976 -0.120949 28 33 38
757.873 210.041 -1137.12 0.0283726 -0.0175033 0.946523 101 103 102
607.709 390.323 -1115.45 0.137516 0.253512 0.414714 100 104 98
454.509 -50.8085 -1147.49 -0.146812 0.514635 0.56239 58 51 52
651.045 271.083 -1121.4 0.27283 -0.100052 0.540645 185 186 166
190.954 250.586 -1153.67 -0.280002 0.165352 0.665723 40 45 33
217.476 349.555 -1159.91 -0.188957 -0.646123 -0.145588 31 37 19
550.767 126.052 -1129.86 0.0937721 -0.831331 0.433878 101 107 117
340.62 82.1039 -1149.03 -0.0994663 0.073353 0.902767 40 37 36
408.315 125.054 -1122.46 0.287031 0.33339 0.134196 143 169 168
322.679 330.544 -1150.6 0.165987 -0.0113937 0.535696 44 33 31
389.408 129.66 -1112.06 -0.143215 0.122537 0.0185681 156 197 201
338.33 454.658 -1142.63 0.107186 -0.0683241 0.673308 34 36 28
673.995 -3.58285 -1162.74 0.347345 0.812105 0.0780281 242 250 239
226.376 263.414 -1163.03 0.213569 -0.530786 0.161527 67 75 51
790.582 402.281 -1151.57 -0.808347 0.498776 0.236432 94 96 86
688.143 224.562 -1139.28 -0.0871858 0.120413 0.929247 105 106 107
341.77 171.233 -1148.81 -0.0937152 -0.0605368 0.823488 28 27 19
238.009 -6.50267 -1159.76 0.146251 0.025929 0.542665 68 53 52
220.245 48.4756 -1146.28 0.1837 0.736089 0.0232085 44 52 54
396.605 160.784 -1087.51 0.0222425 0.657055 -0.269817 157 199 199
431.659 405.104 -1141.72 0.130741 0.00239916 0.687667 67 59 55
472.002 182.404 -1117.71 -0.0458402 -0.17077 0.965048 33 44 45
291.009 12.1681 -1127.63 0.0235741 -0.716653 0.652458 62 64 62
738.059 269.753 -1133.53 -0.0671626 -0.237766 0.640476 98 92 83
261.824 116.608 -1159.13 -0.27348 0.0447153 0.569437 52 58 59
550.587 403.222 -1134.86 -0.023129 0.0455039 0.602993 98 98 95
571.329 260.435 -1114.49 -0.0922966 0.158706 0.969222 26 40 42
581.311 90.7688 -1126.16 -0.208475 -0.0371585 0.894842 170 172 164
530.037 34.0485 -1148.79 0.0902003 0.234447 0.81506 163 163 159
511.253 361.863 -1122.04 -0.0377228 0.410011 0.735974 226 219 186
183.659 308.525 -1130.76 0.16386 -0.711072 -0.596896 43 27 20
641.006 395.754 -1135.99 0.176358 -0.0913459 0.667907 90 93 84
318.535 424.856 -1142.42 -0.120289 -0.104115 0.816398 33 32 25
755.111 346.419 -1155.74 0.476776 0.316085 0.717306 105 98 98
620.261 291.012 -1113.54 0.185208 0.0108507 0.344185 153 159 139
361.785 119.677 -1130.06 -0.0114086 -0.0604752 0.828164 114 119 112
191.693 180.949 -1152.12 0.0851156 0.149918 0.591128 36 48 34
289.714 190.687 -1146.67 0.24059 -0.127455 0.760147 30 31 21
678.852 371.579 -1136.12 0.00930848 -0.0271239 0.772833 83 77 69
230.61 91.7717 -1155.07 0.00542455 -0.129281 0.652362 36 38 30
630.925 279.992 -1103.45 -0.0167784 -0.372147 -0.0680679 174 175 156
320.045 180.563 -1145.84 0.330646 -0.0533458 0.614814 41 34 25
569.786 399.303 -1135.55 0.0689563 -0.522253 0.513668 63 44 41
541.254 40.46 -1146.11 0.0245013 -0.102116 0.929591 91 83 87
561.492 40.7285 -1145.47 -0.132792 0.0191029 0.894882 89 84 87
430.789 30.581 -1149.64 -0.0367899 -0.0678733 0.933462 58 51 50
600.929 220.276 -1105.56 0.0601553 0.162931 0.945197 59 68 69
404.365 230.781 -1113.03 -0.762312 -0.109294 0.568054 196 207 207
442.054 415.241 -1140.67 -0.183668 -0.236484 0.459973 73 63 57
408.036 368.655 -1139.12 -0.218115 0.719646 0.561082 83 76 64
292.246 90.1898 -1149.94 0.152137 -0.30035 0.630107 50 52 50
283.909 300.013 -1144.74 -0.0393846 0.0999104 0.556959 33 29 16
793.074 134.569 -1135.72 -0.100923 -0.00129578 0.827039 101 111 111
218.804 404.179 -1143.36 0.101738 0.0887514 0.477789 27 33 21
361.631 182.646 -1129.2 -0.13467 0.144633 0.846272 105 106 96
340.785 395.471 -1142.93 0.0501052 -0.179982 0.645153 46 38 33
568.869 201.333 -1108.76 -0.149339 0.0441834 0.978823 33 44 46
627.982 493.889 -1138.73 -0.125811 -0.257423 0.675042 61 63 48
199.96 199.824 -1145.3 -0.193719 -0.195436 0.452558 41 46 43
491.17 200.225 -1115.65 0.0516468 -0.0869858 0.983954 32 44 47
331.412 120.242 -1146.51 0.0599516 -0.0420624 0.875231 34 32 20
682.782 499.124 -1142.94 -0.00794537 0.188507 0.405455 57 69 60
232.293 251.112 -1143.68 0.151202 0.177213 0.436781 28 31 22
341.26 50.0971 -1149.79 0.0218763 0.0986864 0.839428 50 48 50
571.616 60.5161 -1145.15 0.00788005 -0.0917022 0.932185 85 81 85
230.16 121.114 -1143.4 -0.120805 0.06441 0.443023 49 69 69
408.184 86.1566 -1124.62 -0.00228943 -0.357542 0.694224 128 154 156
719.794 271.52 -1136.42 0.13894 0.117329 0.670473 95 96 89
196.8 129.498 -1135.32 -0.742811 0.210169 0.635657 23 61 73
383.092 443.422 -1149.23 0.0305518 -0.0429899 0.435542 55 57 54
279.269 490.095 -1140.52 0.247181 0.0226138 0.406524 17 27 18
230.209 0.284268 -1153.52 0.215822 0.278154 0.430325 51 46 44
511.63 19.5353 -1148.91 -0.0753652 0.019058 0.858245 112 112 112
281.013 71.283 -1145.7 -0.173359 0.0314039 0.639751 50 58 50
218.862 455.092 -1150.19 0.3055 0.0133405 0.303517 24 28 20
174.394 390.334 -1145.35 0.956696 -0.257763 -0.126857 37 30 13
441.153 230.601 -1111.09 0.127219 -0.220324 0.953278 34 46 49
391.712 129.897 -1130.23 -0.0249218 -0.1806 0.836432 120 120 110
620.286 424.298 -1108.55 -0.0171073 -0.346971 -0.222367 95 98 84
708.349 81.6303 -1137.51 0.00862491 -0.264938 0.862323 85 94 83
472.078 30.7642 -1147.83 0.002913 0.0193745 0.966007 81 74 76
412.113 330.859 -1103.09 -0.439476 0.403728 0.785194 134 159 145
391.292 -39.9056 -1150.67 -0.0372792 -0.103422 0.831766 42 38 38
778.356 324.789 -1135.22 -0.0345054 -0.050697 0.786839 78 76 67
491.267 250.479 -1113.42 0.0346579 -0.0302763 0.964956 30 43 45
661.583 321.114 -1135.55 0.260453 -0.00909077 0.561635 176 170 159
250.504 493.298 -1113.3 0.194799 -0.324952 -0.0727586 32 28 3
639.322 298.287 -1113.95 -0.360246 0.492647 0.37673 174 177 158
251.933 352.912 -1164.02 0.307191 -0.0488305 -0.0353576 35 39 24
511.948 29.3693 -1134.09 -0.0959301 -0.0129847 0.367788 171 202 214
619.437 371.138 -1134.48 0.0530793 0.681724 0.413737 71 69 58
730.113 69.3978 -1136.26 -0.0528812 0.0552818 0.832881 77 86 82
228.22 164.403 -1141.18 0.206507 0.047512 0.477068 42 65 58
669.271 374.561 -1138.53 -0.117844 -0.0490937 0.730114 87 81 75
467.954 455.087 -1142.06 -0.00829995 -0.118371 0.904211 59 51 50
580.964 109.104 -1127.32 -0.0546816 0.0445113 0.9186 155 154 148
521.59 363.981 -1122.87 0.0222356 0.631428 0.606037 233 228 198
641.014 159.622 -1113.76 0.341287 0.0420529 0.509484 184 215 211
330.097 250.846 -1146.71 -0.0545541 -0.0358952 0.750601 37 33 23
132.704 129.8 -1145.94 0.859525 -0.114359 -0.0687308 45 54 49
488.955 454.898 -1141.8 -0.00824886 0.0566126 0.933964 59 51 49
648.091 485.099 -1135.49 -0.109802 -0.0953149 0.736218 53 64 51
362.194 339.225 -1127.1 -0.299909 0.0752641 0.787347 98 100 83
679.498 449.766 -1134.46 -0.149757 -0.00203349 0.617877 62 69 61
481.052 73.0059 -1130.06 -0.0817483 -0.675833 0.552514 155 156 154
631.726 414.046 -1133.18 0.192705 -0.168786 0.408788 88 98 86
312.267 349.258 -1144.55 -0.334609 -0.0927791 0.663131 41 35 25
242.109 279.035 -1150.75 0.0319064 -0.369659 0.522661 39 39 33
220.584 279.766 -1151.54 0.00439324 -0.0819216 0.495661 34 33 23
511.633 150.381 -1116.63 -0.0851329 -0.136233 0.962293 37 49 51
580.457 445.261 -1150.73 -0.60137 0.00210993 -0.00179659 100 92 82
362.51 251.219 -1124.89 -0.271944 0.00921627 0.43503 99 101 86
256.24 431.207 -1149.43 -0.364423 -0.342251 0.727936 24 33 20
194.183 298.796 -1133.22 -0.223133 0.264035 0.500947 20 23 13
718.508 131.233 -1141.59 0.00828169 0.267611 0.883756 101 105 97
651.102 49.98 -1142.26 0.0188304 -0.0353403 0.900883 101 108 105
637.666 355.02 -1121.69 -0.116411 -0.0597085 0.692235 192 205 181
304.009 7.43634 -1146.43 -0.335121 -0.0739859 0.685513 48 55 49
748.44 380.061 -1133.48 -0.103368 -0.0775437 0.696218 66 58 56
681.961 -26.8925 -1137.14 -0.0950045 -0.222917 0.550015 114 132 123
318.047 449.365 -1163.85 -0.393496 -0.0870852 0.609708 25 27 20
361.66 440.491 -1134.87 -0.482407 -0.16041 0.549628 39 38 34
525.352 322.34 -1095.03 -0.281939 -0.957605 0.0591851 244 234 193
681.471 -40.2009 -1142.46 -0.156038 0.107615 0.613923 114 130 122
349.269 309.182 -1144.08 -0.0723481 -0.310775 0.50244 43 42 31
351.322 319.291 -1142.42 -0.606115 0.00514847 0.572022 63 65 52
148.085 93.5771 -1158.49 -0.314461 0.0577248 0.613167 51 53 53
253.21 312.131 -1145.53 0.26471 -0.356366 0.0140025 33 28 17
311.061 19.9594 -1150.56 0.0601835 -0.0413847 0.835965 41 48 46
401.286 130.535 -1130.37 0.150178 -0.0436418 0.873881 133 135 127
790.238 150.186 -1136.77 -0.0414321 -0.0788687 0.845324 98 109 106
388.266 222.709 -1129.64 -0.387915 -0.133803 0.724352 71 73 60
639.442 409.541 -1144.65 0.00588838 0.118034 0.433415 96 104 93
750.37 193.961 -1137.14 -0.21555 0.0619093 0.870858 102 101 97
307.759 282.241 -1124.95 0.315444 -0.117855 0.0793846 49 46 39
768.887 375.502 -1138.48 0.0401689 -0.00868375 0.565051 73 63 52
581.233 71.5665 -1130.79 0.0679671 -0.909762 0.22976 191 193 186
614.461 289.903 -1115.09 -0.737088 0.0940942 0.30218 125 143 131
261.988 179.582 -1149.82 0.286175 -0.0905064 0.76451 39 39 34
461.622 120.448 -1129.9 0.0497339 0.0302161 0.937655 117 123 119
551.376 279.423 -1117.58 -0.0426032 0.16136 0.976454 27 40 43
458.267 494.905 -1141.89 -0.116219 -0.00933453 0.853546 50 40 41
621.368 99.6304 -1114.52 -0.257816 -0.334234 0.399784 242 250 239
307.992 3.94363 -1136.27 -0.0595987 -0.453999 0.493428 64 59 65
591.28 220.515 -1106.77 -0.131585 0.17195 0.953381 36 47 51
380.068 371.642 -1140.85 -0.191307 0.423472 0.665188 73 66 54
477.926 395.249 -1135.57 0.287237 -0.172979 0.581842 74 68 69
150.363 234.458 -1152.91 -0.053759 0.0110145 0.728417 39 37 37
486.852 85.5361 -1113.8 0.199873 0.134873 0.0781676 154 177 177
265.469 367.752 -1157.36 0.814823 0.023228 -0.531651 39 43 30
382.196 394.573 -1147.51 -0.157083 -0.0247061 0.676785 59 50 44
311.697 300.299 -1143.64 0.139421 -0.147014 0.689546 45 43 35
228.804 178.212 -1158.99 -0.206052 0.371331 0.668164 65 67 65
375.021 346.284 -1141.84 0.780427 0.457813 0.425843 78 66 46
330.092 389.214 -1147.69 0.0987701 0.0955779 0.603637 41 35 32
356.867 131.813 -1143.47 -0.985548 -0.103101 0.0351332 141 143 146
253.39 41.3785 -1158.91 -0.00996493 -0.000373573 0.807233 32 42 35
311.158 149.851 -1146.75 -0.0652935 -0.11091 0.789117 41 35 27
231.994 402.07 -1151.52 -0.181581 0.319864 0.552249 32 32 26
141.831 103.84 -1151.82 -0.069591 0.393813 0.521837 53 52 52
173.148 350.108 -1163.02 0.240356 0.329521 0.257924 21 28 20
161.144 52.3101 -1158.36 0.00789489 -0.549137 0.565211 39 46 49
669.562 413.531 -1138.14 0.138598 0.0211915 0.813192 83 87 80
677.162 414.209 -1139.02 -0.0876005 0.207023 0.69111 74 73 65
794.351 230.111 -1135.78 -0.132786 0.0189634 0.809939 87 87 80
797.098 390.423 -1140.12 0.249124 0.447977 0.668359 88 91 86
727.944 392.256 -1135.65 -0.153064 0.12892 0.597847 74 69 72
682.04 338.866 -1135.07 -0.0844564 -0.323618 0.289891 86 83 80
319.061 -0.735804 -1146.37 0.268657 0.0442185 0.560928 52 47 47
308.889 466.724 -1160.91 0.347403 0.460668 0.0852441 31 25 24
610.844 140.358 -1102.85 0.11086 -0.112894 0.942854 142 156 160
150.261 354.691 -1149.31 -0.207139 -0.00599729 0.568437 28 24 15
383.312 311.108 -1113.85 -0.513258 -0.166161 0.614488 102 117 126
286.364 476.302 -1135.5 0.55413 -0.123311 0.184508 26 30 21
229.041 470.243 -1142.66 0.132002 -0.0675076 0.304472 20 27 19
173.749 391.802 -1150.19 -0.360856 -0.123746 0.422621 36 23 10
241.138 279.835 -1136 0.177414 -0.0838179 0.105626 35 35 26
224.371 281.851 -1135.26 -0.475338 -0.331224 0.534515 41 42 32
792.018 370.275 -1134.07 0.0104868 -0.155039 0.65648 89 90 83
200.257 110.904 -1154.79 0.17322 0.235483 0.670091 44 52 42
332.916 101.398 -1149.03 0.119857 -0.025821 0.921058 37 34 27
392.143 312.713 -1131.06 -0.512315 0.207303 0.475377 79 66 43
521.46 426.536 -1132.28 -0.0131134 -0.19641 0.118762 91 86 80
660.374 424.422 -1151.13 -0.284357 0.116268 0.0663469 94 95 86
232.423 371.522 -1145.9 -0.102638 -0.0319286 0.723018 36 30 25
285.653 297.699 -1151.98 0.669293 -0.523966 0.150347 33 29 18
231.636 58.3906 -1146.23 -0.500468 0.00215525 0.865752 69 54 53
379.849 341.824 -1131.67 -0.0469679 -0.319656 0.200731 91 78 56
290.103 406.134 -1148.1 -0.00313234 0.378534 0.713629 48 40 35
481.456 250.857 -1113.1 0.0407071 -0.0237721 0.976553 33 45 47
293.188 281.72 -1145.65 0.0965419 -0.0494392 0.582554 33 30 17
362.366 190.814 -1129.67 -0.0416747 -0.00471789 0.760778 103 105 91
390.564 169.765 -1113.37 -0.0941397 0.0248799 0.394867 150 189 187
321.56 371.145 -1147.02 0.266997 -0.0244735 0.552272 45 38 33
320.195 202.733 -1149.1 -0.0425393 0.339382 0.856534 45 37 31
378.286 124.854 -1126.1 0.167316 -0.0996718 0.685852 115 125 116
560.202 72.5278 -1130.34 0.0103793 -0.764727 0.387126 170 173 168
430.646 326.763 -1107.26 0.0898817 0.695965 0.632948 196 210 210
236.664 110.202 -1167.5 0.204653 -0.905839 0.370907 56 61 51
796.388 125.348 -1138.44 0.00995908 0.0440563 0.836078 101 112 114
180.006 321.331 -1144.77 0.026723 0.114221 0.419886 37 28 18
511.315 69.062 -1145.69 -0.00835443 -0.297117 0.782181 82 78 86
298.416 424.986 -1143.66 0.161895 -0.0033628 0.654233 31 32 23
252.642 329.11 -1151.98 0.220693 -0.242994 0.163828 32 31 19
261.112 393.91 -1149.23 0.0685511 -0.0867181 0.651674 41 39 33
431.265 242.493 -1108.03 0.0501481 -0.113065 0.971946 38 48 50
411.543 364.812 -1130.5 0.00308506 0.529012 0.617497 145 137 119
194.796 383.716 -1160.95 0.0186101 0.631046 0.775522 25 41 31
658.468 379.871 -1135.67 0.0192176 -0.005324 0.817196 89 86 82
242.3 130.664 -1153.39 -0.0236053 0.0311795 0.739967 45 51 45
320.719 1.58351 -1161.46 -0.0762889 0.377959 0.111269 50 60 55
239.242 -40.8851 -1135.01 0.229713 0.0543776 0.120555 51 46 44
647.557 180.074 -1115.4 -0.316733 0.0339555 0.497649 239 237 211
241.36 259.54 -1159.57 0.343551 0.0987613 0.206507 62 70 57
180.932 389.213 -1144.87 -0.0422897 -0.41834 0.620197 33 21 22
237.723 225.629 -1121.98 0.619958 0.008249 -0.725509 52 51 34
346.489 215.969 -1149.31 -0.332684 0.167027 0.92813 18 24 22
290.155 294.048 -1133.52 -0.376926 0.217393 0.662592 45 41 29
367.422 104.354 -1128.18 0.0894792 -0.342239 0.935342 116 118 109
377.79 129.848 -1127.29 0.240608 -0.0624023 0.81609 113 117 108
392.054 188.451 -1129.01 -0.00852796 -0.131451 0.909558 77 78 65
401.159 296.705 -1112.46 -0.949512 -0.298724 0.0958768 92 87 69
378.227 302.541 -1105.39 0.710079 0.535362 0.448655 93 81 61
270.826 292.492 -1145.42 -0.176632 -0.182553 0.519771 29 30 17
498.58 455.088 -1141.83 -0.0732245 0.0251629 0.947812 59 52 50
196.521 355.331 -1169.3 -0.749167 -0.040562 0.661138 33 30 25
351.402 10.3638 -1150.34 0.0562065 0.00402365 0.835791 49 55 52
303.341 390.936 -1171.84 -0.482334 0.438505 0.758332 49 42 34
702.175 171.179 -1140.8 0.0769791 0.268462 0.733534 113 115 105
501.776 162.105 -1117.68 -0.0985955 -0.113619 0.974164 31 41 44
378.519 144.437 -1112.86 -0.207479 0.114154 0.177762 170 226 227
375.972 317.649 -1107.56 -0.78057 0.0941738 0.617933 93 81 61
177.63 229.693 -1154.16 0.344191 0.369702 0.381262 35 40 31
511.106 270.415 -1114.31 0.0138873 -0.0277748 0.983702 37 51 54
525.43 394.076 -1135.73 -0.373506 0.010299 0.825024 88 82 78
342.064 20.1282 -1147.63 -0.0392032 -0.11375 0.909337 52 53 54
271.09 80.2543 -1159.81 0.237678 0.117449 0.0537285 66 73 70
718.362 301.916 -1127.63 0.566634 -0.374219 0.278207 99 96 89
530.182 392.84 -1139.17 -0.0757376 -0.302707 0.61384 100 97 91
341.121 331.296 -1152.23 -0.2312 0.0182393 0.65069 24 28 19
283.431 468.277 -1175.12 -0.508281 0.361144 0.781808 25 36 17
738.02 371.744 -1136.12 -0.0936471 -0.0683336 0.762044 73 60 53
310.58 179.853 -1149.71 0.0669661 -0.192161 0.728103 43 37 30
541.131 190.399 -1111.99 -0.096006 -0.0258632 0.970097 29 40 42
501.497 139.961 -1120.12 -0.153057 -0.221897 0.943592 33 42 45
336.958 463.031 -1153.61 -0.579859 -0.209063 0.528744 56 45 38
358.103 474.487 -1142.33 0.0951424 0.0628083 0.796155 35 33 29
431.152 200.037 -1115.92 0.0504035 -0.244705 0.948123 33 43 44
531.049 90.3343 -1127.72 -0.0583258 0.00538801 0.953678 154 156 151
656.182 204.406 -1133.37 0.872506 0.115408 0.344452 176 174 173
300.17 212.007 -1149.3 0.0185126 0.0425137 0.765419 39 33 26
571.237 477.375 -1136.27 -0.126348 0.00903379 0.935052 60 51 56
331.628 341.115 -1142.72 -0.150093 -0.0196114 0.503226 43 33 24
689.507 51.1154 -1140.84 -0.272203 0.182285 0.639596 96 111 106
612.589 419.461 -1143.7 0.0189287 0.0237347 0.442655 101 99 92
721.145 242.926 -1139.76 0.110424 -0.147898 0.636279 102 103 92
347.325 263.598 -1149.49 -0.0738976 0.308492 0.751844 53 46 39
301.896 150.645 -1149.93 -0.203193 -0.0543718 0.791363 39 34 24
458.565 474.772 -1141.3 0.131054 -0.138697 0.883634 51 44 41
