ply
format ascii 1.0
comment Created by Open3D
element vertex 1363
property double x
property double y
property double z
property uchar red
property uchar green
property uchar blue
end_header
276.792 407.824 -1170.57 99 79 59
747.14 388.818 -1189.77 155 137 113
876.257 417.29 -1222.31 170 169 153
816.089 387.664 -1190.96 152 137 116
737.315 208.45 -1158.69 165 166 157
654.62 187.942 -1148.7 183 178 162
334.993 249.121 -1145.79 140 121 92
362.684 57.8117 -1159.94 36 31 4
465.801 478.872 -1170.49 33 47 25
296.742 417.854 -1174.16 106 81 50
866.168 176.799 -1223.8 186 188 171
526.206 116.414 -1101.58 35 39 28
602.683 338.189 -1143.52 79 78 47
767.565 319.078 -1178.56 222 213 195
854.584 516.133 -1216.58 164 115 114
195.096 256.377 -1167.87 52 48 13
242.444 111.692 -1118.53 65 51 39
615.635 256.797 -1109.87 98 110 89
354.934 296.723 -1097.55 76 65 42
784.886 218.912 -1134.96 167 168 152
335.429 297.093 -1107.45 62 47 32
383.057 148.049 -1156.81 40 42 12
476.189 188.005 -1141.51 130 125 110
736.184 358.253 -1183.36 157 150 136
955.51 356.919 -1237.44 232 219 204
413.508 158.874 -1128.93 39 43 32
815.881 196.516 -1197.57 171 174 154
183.359 365.4 -1169.22 58 49 15
224.336 198.606 -1163.75 90 72 51
486.859 200.79 -1130.87 111 108 77
793.786 325.051 -1107.81 165 130 144
372.402 159.762 -1157.55 40 42 10
252.787 338.814 -1164.04 52 50 18
685.976 67.1174 -1194.22 170 165 142
933.1 105.05 -1239.35 203 205 187
795.974 319.207 -1179.08 222 217 198
346.307 335.902 -1130.68 60 62 46
645.452 196.671 -1134.48 42 51 41
513 348.617 -1131 44 48 35
796.239 496.301 -1201.83 169 148 130
214.742 46.9682 -1199.16 93 57 14
464.374 310.822 -1085.9 43 50 40
754.353 229.053 -1133.19 162 164 133
586.853 428.209 -1159.1 173 165 144
674.631 169.501 -1151.77 169 159 145
846.905 116.622 -1219.47 203 205 187
374.669 279.007 -1140.52 90 67 40
602.927 318.153 -1144.48 90 87 50
836.532 417.741 -1197.6 141 128 112
474.673 108.969 -1141.91 36 40 31
694.243 189.047 -1145.87 165 161 149
404.414 179.273 -1130.18 36 40 32
585.35 63.8071 -1178.04 129 128 113
674.446 92.6124 -1168.02 144 142 115
416.455 218.019 -1143.02 124 124 105
376.13 266.026 -1106.6 82 68 37
346.176 456.476 -1106 87 82 49
327.58 328.464 -1157.96 104 90 63
825.836 347.903 -1185.06 165 155 143
606.879 288.43 -1163.59 205 196 176
762.452 288.435 -1133.75 93 101 58
335.983 356.472 -1105.85 75 53 34
327.571 265.82 -1096.61 76 64 49
635.578 147.366 -1158.55 149 136 116
316.222 217.871 -1139.41 81 62 33
634.317 118.966 -1164.69 149 141 120
473.301 321.038 -1100.1 39 44 36
386.125 395.78 -1116.4 80 66 43
806.587 487.46 -1208.57 164 115 114
786.026 296.145 -1204.64 181 179 169
406.97 399.894 -1160.11 129 128 97
141.505 387.806 -1169.66 48 51 18
376.317 318.055 -1160.51 112 111 86
554 178.726 -1154.09 112 112 92
493.562 308.474 -1151.33 84 88 41
286.902 288.252 -1150.08 90 72 44
386.434 207.896 -1141.45 109 100 79
306.509 147.784 -1126.72 73 51 34
592.402 27.9529 -1146.28 82 97 58
276.517 197.681 -1134.21 75 56 33
382.768 377.561 -1122.73 21 20 1
532.999 248.581 -1147.9 116 122 76
542.197 27.6686 -1149.73 80 82 40
777.462 417.966 -1199.43 171 167 150
365.939 135.287 -1127.74 56 46 31
835.885 186.101 -1203.49 172 184 164
536.321 216.424 -1124.16 22 30 21
634.195 50.035 -1179.7 209 203 182
703.346 340.304 -1177.61 158 158 140
422.84 258.1 -1125.16 15 26 9
531.03 398.323 -1148.48 75 73 21
213.718 177.205 -1167.55 46 38 7
572.743 168.274 -1147.62 115 114 70
694.79 198.87 -1143.42 165 163 148
272.433 337.952 -1162.11 50 46 18
361.95 455.94 -1109.44 107 78 34
503.208 219.397 -1129.4 24 32 22
401.864 207.646 -1105.73 56 76 40
602.855 348.283 -1143.69 78 77 38
444.105 450.706 -1168.29 43 37 39
140.024 406.212 -1167.44 48 53 21
263.787 -38.301 -1217.17 95 69 33
805.133 235.323 -1209.18 170 179 162
593.048 388.031 -1144.56 77 76 43
810.422 362.245 -1188.18 164 158 134
360.854 327.215 -1128.53 62 58 41
541.786 158.511 -1145.65 89 91 65
654.488 179.086 -1149.79 181 171 153
586.348 206.376 -1122.37 28 38 27
776.076 106.508 -1206.22 189 206 183
445.996 306.906 -1111.24 73 62 36
645.507 225.71 -1115.06 63 68 55
282.9 146.998 -1164.39 45 39 6
204.461 267.288 -1167.34 45 47 15
915.895 256.585 -1204.01 176 177 164
583.264 348.197 -1144.82 78 77 25
423.989 357.548 -1117.88 89 77 56
906.196 156.48 -1219.95 179 195 173
524.167 227.634 -1147.92 158 163 113
684.677 229.357 -1136.6 180 176 160
563.267 88.7302 -1147.23 86 90 44
646.087 226.846 -1123.42 46 54 42
265.701 170.548 -1167.53 88 65 31
456.24 287.37 -1117.35 75 63 39
383.012 165.559 -1157.61 35 38 9
381.424 274.757 -1117.63 16 25 9
532.337 317.604 -1148.45 85 87 49
906.448 196.006 -1232.27 163 169 160
786.166 115.773 -1207.31 198 207 183
596.037 306.035 -1130.8 63 67 55
612.839 307.928 -1143.35 90 90 55
756.852 74.8081 -1209.85 133 130 112
703.143 232.054 -1157.6 169 174 159
805.89 27.0523 -1225.3 180 202 174
736.654 337.754 -1181.34 162 165 144
503.385 407.999 -1148.73 64 72 30
393.82 127.71 -1158.48 40 41 10
926.234 356.734 -1233.68 237 220 204
816.072 256.655 -1209.73 173 180 155
905.803 27.0342 -1242.94 255 231 204
286.442 187.492 -1132.55 68 49 28
452.368 417.141 -1156.13 38 41 29
555.183 80.0261 -1095.18 39 45 32
805.311 308.502 -1177.46 241 241 229
251.632 30.6216 -1202.91 97 66 39
945.551 138.267 -1237.4 211 211 177
414.955 297.557 -1107.77 67 52 30
632.477 298.075 -1141.82 89 94 58
362.297 198.11 -1159.32 19 19 3
466.425 277.406 -1156.59 98 95 61
345.264 385.832 -1107.12 78 62 46
906.736 106.329 -1231.52 205 209 189
324.69 24.9276 -1195.4 102 73 37
705.884 56.4692 -1203.03 122 117 97
474.473 246.616 -1137.62 107 93 70
515.876 137.585 -1134.62 125 111 95
961.508 335.575 -1238.57 204 208 190
725.433 19.2471 -1212.14 129 119 101
532.929 258.317 -1149.06 113 116 71
664.291 337.704 -1113.94 151 143 127
906.35 386.622 -1227.68 189 191 167
293.328 219.365 -1079.69 69 71 32
656.563 499.591 -1171.66 145 140 116
664.818 107.608 -1177.09 48 64 50
362.539 147.883 -1159.34 41 40 10
654.304 -20.6902 -1194.04 178 178 152
183.209 361.223 -1168.92 53 48 17
756.291 35.8203 -1215.06 134 126 106
284.477 169.315 -1166.98 93 69 40
545.886 216.746 -1122.48 23 32 21
684.149 376.463 -1137.93 99 75 10
823.916 428.949 -1210.07 170 160 148
866.522 326.524 -1220.57 202 198 186
586.709 468.659 -1154.52 88 82 78
885.636 206.722 -1207.49 171 176 149
745.002 207.972 -1139.36 174 168 159
442.957 428.795 -1129.3 113 98 75
562.636 148.455 -1149.26 113 117 67
216.49 257.865 -1141.39 67 49 28
232.062 327.954 -1166.11 46 46 15
515.461 288.669 -1127.93 80 70 45
513.99 289.12 -1131.18 117 107 84
224.877 38.9408 -1199.83 94 66 35
835.365 126.609 -1215.67 203 212 188
523.994 288.945 -1130.76 120 108 88
945.886 446.28 -1234.63 172 159 130
475.974 336.452 -1136.55 127 122 100
586.405 237.548 -1156.3 163 155 139
586.809 207.677 -1150.89 154 145 124
876.131 226.909 -1203.14 165 174 158
573.471 114.841 -1117.45 38 48 34
654.359 96.9011 -1168.8 160 156 135
866.272 466.183 -1215.94 174 160 75
339.199 395.285 -1139.45 12 27 2
807.328 85.6492 -1219.16 189 206 182
501.326 307.116 -1128.64 122 100 90
843.72 429.124 -1197.92 145 129 119
256.375 147.944 -1125.29 67 54 29
612.752 147.67 -1144.53 112 118 78
412.425 167.858 -1156.41 41 45 15
501.656 151.771 -1136.9 60 62 48
471.929 47.123 -1188.25 133 118 90
693.809 286.898 -1156.92 85 89 75
491.558 187.831 -1150.67 169 182 123
736.293 26.6098 -1212.59 127 126 116
874.955 19.8853 -1236.08 255 231 204
845.414 255.935 -1217.91 174 180 160
732.928 378.541 -1135.35 102 76 6
732.323 287.324 -1167.6 172 167 152
403.36 219 -1110.53 14 25 8
614.284 319.087 -1119.56 163 147 128
376.559 179.382 -1135.84 41 43 30
406.149 277.925 -1154.3 127 128 100
934.807 118.116 -1229.81 212 229 193
483.827 237.947 -1149.86 139 157 107
802.244 55.8636 -1220.22 179 200 177
266.877 169.208 -1129.29 67 49 27
746.673 437.716 -1197.13 140 121 104
811.446 420.105 -1201.27 149 139 131
427.942 223.9 -1117.93 33 34 28
436.724 257.46 -1151.96 178 187 162
304.058 -11.1548 -1208.87 89 70 31
723.966 48.2624 -1207.67 132 120 98
800.179 285.986 -1179.23 192 198 180
656.198 446.629 -1173.27 147 140 119
614.422 198.99 -1146.36 198 195 172
374.746 360.366 -1122 88 65 48
516.75 398.22 -1146.27 49 49 41
936.116 496.035 -1233.08 174 160 75
644.844 309.486 -1120.14 166 146 122
406.669 457.695 -1179.79 107 111 67
335.825 346.273 -1105.66 72 56 35
355.801 26.8312 -1198.66 101 71 51
866.606 456.606 -1217.04 174 160 75
744.48 279.209 -1122.99 161 137 124
266.433 287.742 -1149.17 90 68 45
182.359 428.477 -1168.73 54 51 16
804.68 107.166 -1143.04 188 171 157
216.335 338.137 -1155.64 79 64 46
486.198 276.377 -1125.08 80 69 40
286.336 197.509 -1134.32 75 57 29
284.424 -49.6178 -1217.37 100 75 48
706.432 327.968 -1175.74 183 182 168
535.076 438.029 -1147.05 167 153 135
496.263 276.433 -1126.68 84 75 50
715.593 91.9538 -1136.14 188 171 157
555.127 149.198 -1160.76 100 97 77
706.299 308.131 -1172.69 236 237 221
394.348 88.9065 -1116.81 42 41 32
213.073 201.432 -1168.37 43 37 8
735.504 227.393 -1178.06 168 160 141
796.173 175.032 -1203.8 182 194 174
505.886 346.47 -1143.05 151 155 132
786.13 136.989 -1204.43 203 211 190
959.883 251.317 -1238.09 172 176 151
303.526 171.113 -1166.74 98 75 47
654.649 138.36 -1159.13 146 138 119
220.58 292.098 -1148.19 87 65 37
272.59 328.387 -1163.06 49 49 16
574.226 278.942 -1131.16 148 140 120
475.433 448.007 -1159.35 31 46 28
326.042 166.636 -1106.89 61 50 32
646.589 276.369 -1152.58 170 172 155
714.165 151.663 -1137.85 108 114 66
512.634 -7.6061 -1197.74 90 71 53
453.556 384.682 -1110.65 21 29 6
885.169 199.565 -1207.89 173 169 149
444.817 319.434 -1126.99 104 87 51
394.263 354.283 -1117.73 89 70 48
495.98 236.016 -1142.41 109 105 83
803.197 197.872 -1207.71 171 172 157
202.29 305.407 -1167.85 46 45 17
616.297 347.925 -1175.78 158 146 131
673.573 148.749 -1166.63 68 76 64
656.126 276.389 -1154.46 168 169 148
126.427 347.854 -1171.17 33 48 13
626.352 337.804 -1175.23 162 153 137
454.469 69.588 -1133.09 41 42 32
256.655 307.798 -1151.96 85 63 40
683.421 395.673 -1138.71 102 76 6
886.433 266.645 -1226.26 176 179 160
422.794 176.225 -1130.19 46 50 38
746.476 277.856 -1170.66 245 246 227
786.578 277.848 -1172.32 245 247 228
225.835 8.18249 -1168.66 35 33 5
678.504 417.826 -1177.72 147 140 122
604.634 79.6248 -1174.41 174 175 154
582.682 47.0163 -1147.07 83 93 52
133.812 317.798 -1170.82 47 53 23
682.873 288.055 -1139.49 93 99 63
845.504 280.7 -1187.9 187 188 182
242.477 38.2588 -1166.69 29 33 1
493.082 227.401 -1151.09 157 169 114
656.051 317.549 -1174.23 206 208 196
412.421 277.546 -1123.57 19 27 9
575.342 -10.5525 -1195.78 124 112 89
365.432 186.843 -1116.28 66 51 28
455.803 396.686 -1131.51 126 115 89
786.752 108.41 -1142.28 188 171 157
472.824 217.941 -1146.33 32 47 22
262.042 348.212 -1164.67 52 50 21
706.979 438.563 -1196.74 145 116 102
455.965 256.38 -1122.12 73 61 35
792.17 406.909 -1202.95 180 183 165
634.717 265.76 -1125.65 47 51 42
704.024 175.772 -1149.02 166 163 148
296.308 368.014 -1165.4 100 81 55
326.723 238.093 -1143.06 93 76 53
582.843 338.337 -1145.69 77 77 43
822.833 219.12 -1162.92 168 169 152
776.012 136.464 -1202.42 201 213 193
636.211 26.3726 -1195.74 42 53 41
521.806 121.822 -1156.46 45 51 38
766.17 108.028 -1140.46 188 171 157
466.234 266.031 -1122.6 77 67 37
845.608 418.611 -1197.31 140 127 112
356.979 347.851 -1164.95 106 98 73
563.854 227.591 -1075.85 121 115 99
516.373 276.459 -1146.37 111 113 95
627.608 416.089 -1187.97 129 117 104
742.247 154.696 -1147.94 167 153 137
320.441 385.073 -1167.48 98 79 54
745.404 68.7142 -1208.06 123 125 110
463.705 164.74 -1129.65 42 46 36
292.356 78.037 -1163.79 35 29 7
356.763 408.638 -1175.92 103 87 64
633.572 224.848 -1105.26 59 63 50
374.501 119.237 -1123.4 41 38 28
405.006 239.318 -1122.32 84 87 62
445.736 380.948 -1138.89 36 38 28
353.076 157.917 -1159.82 39 39 11
325.344 434.674 -1178.72 89 81 40
766.175 76.6868 -1210.3 137 147 130
836.428 396.607 -1213.01 179 184 158
627.535 269.912 -1149.12 127 132 111
391.635 27.829 -1158.62 32 34 6
453.873 438.584 -1129.54 112 100 87
422.118 187.722 -1155.85 46 51 21
474.377 279.168 -1134.79 100 87 64
295.855 56.2638 -1130.43 91 72 30
484.694 119.251 -1142.57 36 41 31
699.596 295.462 -1138.64 99 99 39
495.716 216.378 -1129.62 100 112 82
274.338 198.77 -1162.58 91 69 43
775.114 69.3637 -1169.93 140 135 114
702.872 148.327 -1139.43 108 117 75
454.544 129.432 -1133.33 36 41 32
935.395 96.1781 -1235.27 216 225 198
756.576 270.04 -1169.33 242 243 219
213.038 367.922 -1165.88 55 45 8
714.424 159.301 -1151.15 164 160 148
462.894 78.2063 -1154.46 43 42 17
235.948 318.091 -1152.66 86 73 47
374.862 168.18 -1135.44 39 44 33
442.35 127.882 -1154.71 57 60 23
472.83 384.789 -1110.92 47 55 25
574.53 128.962 -1164.37 118 115 96
756.015 106.434 -1203.33 181 190 163
512.38 290.064 -1099.19 146 149 123
664.824 168.919 -1151.33 169 160 143
644.861 413.145 -1187.91 126 117 110
766.971 99.1472 -1139.04 188 171 157
734.126 172.139 -1147.03 162 167 154
733.227 367.944 -1135.68 102 76 6
715.613 147.76 -1189.72 182 179 159
516.443 438.095 -1152.39 54 45 23
715.718 87.195 -1193.21 193 203 181
956.343 280.017 -1235.67 182 178 155
572.261 257.984 -1159.22 151 143 123
371.936 188.318 -1157.65 31 31 10
453.913 308.486 -1129.04 106 93 62
822.734 456.574 -1210.21 174 160 75
132.6 357.273 -1170.37 46 49 20
643.908 214.352 -1106.72 74 74 65
855.706 146.502 -1213.45 191 201 178
524.639 60.7235 -1174.05 182 187 162
722.605 395.703 -1134.3 102 76 6
182.405 318.255 -1169.1 48 52 19
245.439 340.491 -1157.25 86 75 48
925.911 366.263 -1233.35 203 204 187
152.605 408.471 -1170.05 39 62 14
576.183 246.679 -1115.61 64 74 49
342.305 247.834 -1103.85 16 25 9
362.148 247.847 -1106.94 16 23 9
885.938 336.743 -1226.49 206 208 196
576.251 206.222 -1122.31 26 36 28
266.679 428.083 -1174.3 85 80 43
366.457 247.814 -1109.31 21 27 9
404.407 229.006 -1124.43 37 38 27
236.972 178.355 -1129.21 68 50 24
626.117 116.862 -1172.99 172 162 146
334.998 144.742 -1126.96 73 48 28
561.478 317.735 -1148.28 55 56 52
394.444 279.977 -1137.65 87 67 44
417.296 158.459 -1127.6 47 46 31
435.094 119.1 -1129.75 37 40 30
336.202 389.841 -1139.58 12 24 9
463.053 97.9821 -1153.82 47 46 13
916.508 36.1055 -1243.22 255 231 204
535.717 246.232 -1121.82 63 76 45
706.345 248.473 -1163.73 191 192 174
725.77 246.693 -1172.51 175 165 146
532.461 117.706 -1150.27 93 96 50
606.792 301.095 -1128.67 41 48 37
352.218 108.181 -1161.04 37 34 6
785.864 246.871 -1183.24 171 172 161
757.568 296.791 -1197.19 190 191 175
552.31 57.5815 -1149.12 77 85 46
342.716 348.321 -1134.88 15 23 7
794.248 149.449 -1209.07 234 237 202
692.12 228.154 -1140.79 96 110 69
926.327 346.041 -1235.32 240 242 207
434.026 -21.3968 -1204.85 79 63 38
784.996 27.1537 -1178.68 169 143 139
294.539 210.511 -1137.33 78 57 35
922.861 247.082 -1206.08 172 178 159
657.02 372.445 -1138.06 92 84 37
376.217 426.037 -1112.53 83 69 50
834.446 427.204 -1198.41 140 126 117
357.248 236.795 -1112.08 65 50 25
375.289 197.068 -1117.87 69 55 32
455.801 237.086 -1126.23 71 58 33
375.731 206.628 -1117.08 79 61 36
536.69 278.673 -1161.63 79 70 53
816.024 208.543 -1160.54 164 165 154
612.476 37.9941 -1145.48 96 100 64
953.574 19.7017 -1250.28 255 231 204
674.238 59.2482 -1175.33 153 144 130
422.721 378.16 -1113.34 20 26 4
504.466 237.037 -1100.09 39 44 30
303.908 18.7934 -1139.24 86 84 40
462.626 385.12 -1111.9 29 29 18
895.953 306.497 -1226.63 184 180 160
794.512 21.9418 -1177.31 169 143 139
314.389 319.044 -1132.62 70 80 46
665.825 437.205 -1175.34 150 140 119
526.26 159.217 -1117.37 23 34 23
603.447 388.043 -1144.17 82 79 41
434.474 258.352 -1129.11 19 30 12
363.15 427.738 -1109.76 81 65 44
836.516 236.86 -1193.81 167 174 150
770.288 338.293 -1132.97 102 77 6
655.894 98.6416 -1134.14 164 168 148
565.994 116.415 -1114.46 38 45 31
634.046 219.188 -1101.76 64 68 50
915.953 456.207 -1226.34 174 160 75
836.446 487.673 -1210.18 165 118 112
657.184 359.407 -1179.93 151 143 126
162.848 348.008 -1167.57 44 52 19
224.711 168.161 -1170.08 89 67 47
526.662 197.133 -1146.37 169 169 121
675.425 117.07 -1137.83 187 171 156
414.981 181.034 -1138.32 93 82 59
702.568 67.3464 -1200.58 125 122 99
835.635 217.254 -1197.3 163 172 157
724.541 119.277 -1159.89 156 152 141
336.228 448.243 -1180.32 95 74 39
755.474 184.765 -1193.04 192 199 176
636.357 186.049 -1135.91 42 52 42
503.277 327.965 -1149.89 72 74 37
326.084 166.244 -1115.7 86 73 35
646.479 107.841 -1135.99 165 163 144
774.002 157.736 -1148.9 165 158 136
474.689 217.241 -1134.3 76 65 38
684.075 245.223 -1150.39 64 71 60
432.209 226.79 -1122.23 27 35 22
244.383 169.425 -1170.25 94 67 46
856.278 456.785 -1214.68 174 160 75
786.938 516.828 -1214.03 164 115 114
384.981 178.375 -1133.37 38 41 32
476.672 397.979 -1145.69 38 40 31
641.443 76.3784 -1163.95 51 56 49
535.745 226.426 -1123.05 23 31 21
376.874 258.166 -1149.7 103 99 79
796.61 177.64 -1153.66 163 156 146
172.116 57.6549 -1171.51 37 39 7
785.37 227.368 -1187.46 170 170 156
643.243 138.017 -1144.01 114 121 79
552.644 308.315 -1147.37 82 81 39
845.731 426.614 -1214.77 175 161 143
806.248 226.845 -1190.68 164 173 156
325.624 -10.2177 -1207.21 91 64 42
725.509 456.57 -1187.63 158 148 139
849.826 415.254 -1198.23 140 127 114
624.937 49.8411 -1179.79 211 206 185
583.624 167.779 -1146.49 113 115 70
896.13 227 -1205.84 166 174 158
463.136 128.192 -1153.23 70 73 34
333.027 417.279 -1153.76 11 24 7
214.733 198.725 -1163.62 94 74 48
674.946 446.082 -1176.72 150 140 121
265.088 148.673 -1174.5 95 66 33
244.82 158.751 -1171.78 92 66 45
455.646 429.25 -1159.51 35 43 31
486.504 476.45 -1136.33 130 113 90
814.309 168.217 -1154.15 163 160 138
776.496 408.643 -1192.59 143 130 119
132.735 388.381 -1169.95 43 57 20
586.451 276.331 -1161.02 135 130 103
234.546 236.662 -1138.02 71 56 41
374.003 16.1322 -1154.74 51 44 19
424.415 218.876 -1120.49 33 36 29
462.19 426.652 -1157.05 37 44 24
574.833 189.391 -1151.04 131 129 109
433.139 217.088 -1119.45 31 36 25
617.444 97.876 -1134.05 141 148 128
786.137 427.807 -1196.8 139 125 111
805.694 76.3434 -1214.06 195 203 182
346.096 176.69 -1113.79 74 57 34
333.36 456.293 -1102.38 89 73 58
704.067 327.118 -1137.74 88 82 47
624.202 280.864 -1127.66 161 154 137
473.421 190.75 -1151.29 87 97 55
865.692 216.946 -1201.58 164 173 157
807.263 165.889 -1209.95 189 193 174
485.602 207.888 -1131.03 97 92 65
486.881 168.431 -1139.02 126 120 97
635.781 126.075 -1174.82 138 137 130
376.067 397.83 -1174.1 110 98 74
492.061 219.098 -1151.03 164 176 121
434.232 311.732 -1079.46 36 42 34
705.069 146.705 -1187.13 173 171 151
473.1 368.219 -1113.89 45 52 23
605.07 290.605 -1126.38 159 146 126
754.515 384.4 -1187.92 161 138 117
506.008 236.579 -1144.59 117 114 90
387.155 216.217 -1120.09 73 58 37
396.765 230.813 -1126.38 41 43 28
593.788 196.107 -1149.21 164 162 139
624.782 -26.7508 -1196.16 193 187 159
142.515 257.535 -1171.08 43 52 22
885.914 436.338 -1221.44 167 160 154
362.422 127.818 -1158.7 35 35 8
162.37 148.107 -1171.23 37 39 8
856.069 66.38 -1225.61 232 219 196
422.747 385.891 -1112.15 21 25 4
746.72 247.102 -1165.94 191 191 176
816.811 69.2529 -1215.88 203 205 187
856.065 447.205 -1215.68 173 158 109
594.543 119.452 -1166.41 136 132 110
736.562 117.83 -1142.09 188 171 157
402.346 98.2416 -1156.87 37 31 7
742.499 394.983 -1133.07 102 76 6
625.741 486.798 -1166.6 142 142 120
550.485 167.574 -1158.51 100 98 79
696.173 267.586 -1165.84 238 235 213
236.39 157.931 -1125.22 73 59 36
212.967 185.48 -1168.51 74 57 30
725.295 159.295 -1138.78 109 117 79
565.444 129.857 -1148.92 104 106 62
496.399 448.24 -1155.75 21 50 37
386.818 277.442 -1154.1 110 112 92
766.742 407.956 -1192.5 142 129 120
866.482 166.595 -1223.48 189 192 171
444.698 88.9823 -1130.13 38 42 30
223.164 109.198 -1167.64 39 33 5
474.726 257.531 -1138.15 110 99 78
267.254 459.535 -1178.82 90 83 54
635.087 209.276 -1127.8 40 51 38
326.366 427.708 -1176.99 90 81 42
636.394 204.997 -1130.02 39 52 37
571.408 55.6453 -1148.45 90 92 47
945.592 356.112 -1235.11 238 221 206
234.472 -30.5237 -1215.81 93 53 23
686.264 205.906 -1137.62 122 129 82
566.362 437.904 -1154.15 65 64 47
386.41 309.369 -1159.16 107 106 83
726.1 25.6044 -1210.65 130 119 102
452.182 443.159 -1127.74 106 106 102
334.746 309.111 -1134.87 101 80 56
414.181 148.735 -1128.72 42 46 35
784.298 99.1563 -1161.38 150 148 130
856.394 36.8572 -1232.79 255 231 204
302.325 232.288 -1088.5 53 65 29
246.628 307.589 -1151.06 85 63 39
735.052 486.502 -1188.76 165 154 135
905.911 18.7459 -1245.31 255 231 204
793.511 430.223 -1197.82 137 122 113
493.973 217.634 -1109.82 32 36 29
556.839 261.226 -1158.69 137 129 112
556.103 118.013 -1133.76 132 121 99
726.493 227.621 -1160.65 174 172 155
496.389 316.426 -1141.41 129 131 112
263.632 256.002 -1149.01 90 74 44
623.5 289.608 -1129.1 42 47 36
342.64 246.575 -1109.36 66 47 30
384.774 187.691 -1119.82 75 56 40
266.505 228.07 -1139.59 71 53 29
646.815 367.619 -1180.61 148 139 122
435.188 219.971 -1116.84 36 37 28
516.317 117.918 -1131.15 124 111 95
815.062 298.98 -1113.56 165 130 144
963.697 129.42 -1243.76 207 212 188
283.891 117.884 -1179.68 95 68 40
594.417 214.649 -1076.52 97 96 77
682.214 456.111 -1179.2 157 136 113
432.949 180.219 -1138.92 112 103 83
552.745 356.112 -1149.15 73 64 37
645.364 298.716 -1168.05 249 241 219
786.266 186.267 -1193.53 172 175 163
873.997 189.413 -1207.96 174 182 160
547.061 478.523 -1147.92 163 150 122
443.291 170.583 -1132.49 68 66 51
736.291 407.827 -1191.4 143 130 117
702.553 88.1792 -1139.46 99 106 61
735.604 216.55 -1138.77 156 154 124
494.522 307.257 -1128.96 120 100 68
732.271 437.496 -1196.47 143 122 104
666.07 46.6396 -1197.12 46 64 51
765.413 308.299 -1133.78 89 94 57
942.288 117.745 -1232.65 215 229 196
586.135 185.964 -1125.28 31 40 29
466.016 416.397 -1132.91 128 117 94
824.451 78.4193 -1163.19 135 130 110
795.791 306.614 -1205.92 181 185 169
345.017 57.1563 -1137.79 66 66 28
355.982 176.411 -1113.37 65 47 28
292.642 36.6339 -1133.35 90 77 31
182.707 177.762 -1169.54 47 42 10
414.193 168.971 -1129.68 37 41 32
246.444 428.201 -1172.23 92 76 58
492.412 38.1724 -1152.51 57 53 21
432.688 68.159 -1155.9 34 33 7
624.281 9.08272 -1190.28 192 187 158
615.14 214.714 -1086.36 91 93 74
192.288 275.36 -1169.25 50 51 14
322.31 224.669 -1086.22 17 27 8
566.033 358.08 -1153.42 56 59 49
905.721 176.83 -1215.6 180 183 173
316.794 298.35 -1153.31 92 72 47
465.963 98.9863 -1139.49 35 37 30
211.563 97.8809 -1188.68 92 62 28
274.26 298.836 -1139.89 92 74 48
836.014 436.598 -1212.7 165 158 152
426.057 406.238 -1123.35 108 93 67
836.042 497.904 -1212.71 165 118 111
706.536 478.044 -1203.54 157 116 110
696.046 446.057 -1180.71 145 142 122
594.966 200.597 -1146.86 176 177 155
442.944 376.398 -1127.53 120 111 85
404.565 168.962 -1129.84 36 39 30
544.629 338.205 -1146.81 72 75 40
506.905 367.373 -1136.14 43 46 34
446.321 476.536 -1127.02 112 95 80
552.847 77.9227 -1149 83 84 44
282.507 367.848 -1160.95 92 92 45
522.875 414.347 -1149.56 72 67 34
536.314 107.329 -1100.9 36 40 26
604.466 298.952 -1124.56 169 149 123
463.393 167.213 -1138.81 107 98 76
543.339 328.912 -1147.14 76 74 34
807.333 244.513 -1209.39 173 177 159
672.691 258.02 -1140.23 98 105 66
346.424 145.081 -1127.16 72 53 35
574.294 68.0915 -1178.93 110 101 89
837.136 166.531 -1216.58 187 191 173
462.778 194.583 -1151.45 62 73 38
592.301 488.462 -1158.91 160 157 123
722.001 127.954 -1138.67 112 118 78
373.256 484.845 -1188.63 118 82 68
346.452 156.555 -1120.89 77 66 42
346.618 458.163 -1183.41 95 87 44
376.025 296.226 -1115.69 71 53 32
377.031 156.324 -1123.82 81 66 41
432.582 377.731 -1112.09 22 23 14
474.361 -1.57322 -1199.12 84 62 37
784.163 429.593 -1200.09 152 140 131
256.436 1.49909 -1207.71 85 70 27
830.846 68.4339 -1166.25 145 140 125
386.633 287.98 -1155.54 114 113 91
756.661 86.7909 -1203.94 174 181 157
724.044 87.58 -1137.79 101 108 64
723.476 99.4353 -1137.86 102 107 76
512.921 337.958 -1149.31 72 68 33
243.755 128.21 -1178.86 83 67 36
486.324 474.967 -1159.19 50 43 28
582.059 288.442 -1153.69 134 137 116
477.349 128.695 -1139.34 36 41 29
492.006 356.904 -1140.16 147 149 124
306.969 178.499 -1131.8 68 48 29
896.052 156.671 -1217.74 179 194 172
646.592 447.918 -1194.3 133 115 104
447.086 277.69 -1138.5 90 77 51
446.596 178.778 -1138.77 119 110 93
326.928 366.632 -1103.36 74 59 42
896.526 197.252 -1229.52 163 169 159
314.683 250.852 -1147.45 104 84 58
746.812 236.343 -1195.69 192 193 183
682.637 278.667 -1140.56 102 104 58
503.282 472.366 -1138.15 146 125 113
515.812 494.928 -1142.96 150 146 120
886.15 316.338 -1224.52 187 193 172
575.959 156.08 -1123.78 32 45 31
594.503 156.132 -1128.07 37 48 35
594.241 269.292 -1131.78 164 154 128
602.943 38.3177 -1146.19 93 97 54
322.686 238.124 -1094.51 13 21 7
706.025 29.0701 -1207.76 124 119 97
394.317 149.527 -1130.18 43 47 35
473.064 247.455 -1144.13 34 46 24
636.324 338.256 -1175.76 163 160 140
666.05 98.0273 -1135.26 167 164 149
374.374 319.043 -1129.33 91 65 52
355.066 200.779 -1079.48 117 132 83
404.109 15.642 -1198.59 80 57 34
531.817 387.96 -1148.99 79 76 28
482.458 368.287 -1113.63 130 140 94
316.77 157.736 -1129.25 69 51 28
935.942 356.389 -1234.22 237 220 206
306.041 437.139 -1177.07 106 81 47
850.202 407.095 -1197.78 140 132 119
706.464 105.089 -1137.57 188 171 157
791.897 386.093 -1203.24 193 194 179
214.141 230.877 -1168.57 50 44 12
885.06 147.365 -1216.91 190 202 178
376.161 365.701 -1167.34 104 96 71
276.448 147.823 -1124.85 69 53 24
672.704 98.6079 -1141.39 98 106 65
172.563 148.158 -1170.3 46 41 11
676.498 197.26 -1153.01 163 164 146
666.294 487.352 -1202.16 125 113 98
436.949 99.2084 -1129.42 38 39 28
714.63 119.389 -1137.78 103 115 71
411.694 47.3159 -1158.32 34 35 7
896.023 416.534 -1224.15 170 169 154
454.551 88.8221 -1134.7 41 43 33
622.846 147.561 -1144.28 110 114 70
964.061 116.779 -1244.94 203 205 187
456.484 136.57 -1144.35 68 59 34
376.331 376.966 -1113.56 90 67 43
556.625 247.389 -1156.23 153 147 125
145.181 207.775 -1171.74 49 47 17
356.59 258.271 -1149.26 89 80 58
634.622 88.8617 -1171.58 184 182 162
436.25 96.2541 -1146.6 65 58 36
603.876 417.665 -1159.55 180 173 162
735.923 477.79 -1202.57 164 115 114
785.771 256.816 -1205.07 176 180 165
385.104 131.089 -1129.19 41 38 30
442.609 98.1743 -1154.93 40 39 12
632.554 38.3596 -1144.09 103 108 59
376.315 456.494 -1112.07 100 81 65
182.105 58.2327 -1171.16 40 38 8
817.303 377.481 -1190.34 155 142 120
453.608 37.1655 -1160.68 77 60 33
745.952 126.998 -1198.06 194 213 179
256.739 238.305 -1139.54 74 57 32
205.843 139.262 -1173.53 70 59 40
576.709 427.886 -1155.28 68 60 66
512.337 100.799 -1128.69 124 110 97
526.704 147.355 -1136.56 126 117 97
436.516 116.628 -1143.48 70 63 40
464.907 118.426 -1147.73 66 60 34
212.802 177.842 -1127.45 77 53 32
463.225 117.935 -1153.88 64 67 30
654.731 69.1029 -1174.05 170 167 152
905.998 116.647 -1226.81 219 233 195
674.318 18.97 -1183.75 151 145 130
554.992 138.816 -1164.27 100 97 75
886.026 426.663 -1222.24 176 161 142
542.162 58.0276 -1149.56 81 82 40
336.21 240.509 -1146.24 172 161 129
544.507 129.05 -1164.43 103 103 85
286.912 219.419 -1138.79 77 53 34
314.463 -0.812455 -1206.51 91 68 47
936.165 336.123 -1234.58 205 208 194
243.313 68.1609 -1166.36 37 34 6
416.237 376.189 -1122.2 100 83 56
243.682 99.7205 -1186.24 93 59 23
706.764 284.793 -1168.62 254 255 249
523.972 317.12 -1147.93 87 88 48
421.247 460.86 -1177.38 38 36 22
192.473 426.718 -1167.06 66 45 11
402.147 104.946 -1139.64 66 60 30
702.887 277.836 -1168.95 246 246 223
686.298 218.612 -1156.89 164 166 146
605.842 486.451 -1161.34 153 144 127
936.169 510.386 -1232.36 174 160 75
613.213 285.075 -1128.34 163 149 129
266.992 137.916 -1122.84 68 56 28
753.748 256.11 -1197.95 172 171 154
284.737 278.668 -1145.43 95 75 53
885.791 105.907 -1225.65 211 221 195
686.705 408.727 -1190.07 135 129 117
193.041 377.669 -1166.24 66 46 15
906.364 466.981 -1225.38 174 160 75
192.578 305.877 -1167.43 51 55 20
594.267 116.373 -1126.17 42 50 38
752.945 246.621 -1197.9 180 180 160
332.988 147.848 -1160.74 40 37 8
402.561 308.316 -1124.12 15 25 8
673.319 411.414 -1177.09 154 145 130
424.628 322.712 -1126.82 90 77 63
617.306 241.676 -1158.24 172 159 147
667.064 506.459 -1205.21 125 112 94
466.28 446.259 -1132.08 118 106 84
416.804 377.237 -1141.39 78 81 61
773.816 337.547 -1199.38 220 217 205
275.005 131.026 -1176.87 96 68 35
392.791 118.421 -1157.72 38 38 9
896.012 385.998 -1225.3 189 191 168
394.843 169.322 -1131.55 35 41 30
354.825 209.25 -1144.89 49 48 39
726.541 514.458 -1209.74 164 115 114
805.624 218.048 -1161.78 166 168 152
774.761 238.914 -1130.05 168 160 136
327.436 206.217 -1137.95 88 67 43
866.595 96.7966 -1225.12 213 219 196
596.894 378.153 -1164.46 166 165 146
503.787 220.784 -1149.89 168 176 131
506.557 474.824 -1155.7 54 45 31
386.844 18.6141 -1156.52 43 39 11
542.727 38.0969 -1149.54 80 82 40
795.886 356.786 -1204.22 244 244 223
395.735 476.359 -1116.1 98 82 55
586.052 486.564 -1157.39 159 156 133
346.665 377.587 -1169.92 107 93 63
710.891 326.595 -1138.42 88 82 50
915.752 286.242 -1230.99 179 174 154
586.273 435.046 -1159.57 170 159 138
777.01 448.159 -1201.25 159 117 109
507.4 154.855 -1138.99 45 55 41
501.847 347.965 -1151.08 67 73 32
544.933 146.908 -1144.16 117 114 73
434.729 78.6344 -1124.66 42 44 35
376.425 277.85 -1153.1 100 99 79
403.152 296.199 -1156.48 108 109 84
622.676 278.109 -1143 98 99 61
826.513 195.848 -1214.83 165 174 163
716.237 76.2893 -1200.93 121 123 107
542.791 276.41 -1147.93 98 100 54
536.563 457.857 -1151.21 44 52 36
495.176 105.777 -1127.87 121 112 90
706.381 407.95 -1190.29 142 130 115
945.435 76.5606 -1241.4 231 219 196
533.138 366.309 -1147.68 75 70 27
592.446 66.7242 -1112.78 49 59 46
825.836 69.0836 -1217.8 203 205 187
766.767 138.021 -1146.9 188 171 157
442.2 158.193 -1154.43 62 70 35
805.632 36.0492 -1224.34 180 202 174
502.199 400.266 -1147.63 55 73 29
626.63 318.212 -1170.72 185 182 165
573.054 118.575 -1147.24 100 104 58
632.686 447.518 -1195.18 129 115 87
676.168 476.818 -1176.64 152 136 127
896.543 366.856 -1226.53 204 205 187
552.053 139.257 -1148.51 104 108 61
217.007 328.035 -1153.58 82 66 48
230.383 91.7197 -1168.54 39 30 4
715.439 208.905 -1137.8 115 118 74
233.827 57.8768 -1167.65 33 33 4
845.566 57.4827 -1226.19 255 231 204
405.374 467.442 -1185.25 121 123 74
474.207 238.671 -1101.54 69 72 44
555.079 169.738 -1156.35 107 105 86
686.259 46.51 -1201.24 175 171 152
842.407 346.163 -1185.95 166 155 141
682.824 117.583 -1140.78 102 116 68
446.615 207.871 -1143.55 131 130 112
746.688 46.1694 -1212.29 122 125 110
947.608 163.538 -1239.01 191 193 164
684.073 236.536 -1150.14 61 63 54
603.913 286.707 -1128.63 161 145 128
541.156 157.725 -1155.57 105 110 86
182.731 267.885 -1169.12 46 50 14
646.413 136.683 -1176.87 146 144 124
701.046 210.713 -1137.45 108 110 65
383.93 241.603 -1148.6 121 120 99
654.353 239.238 -1136.13 193 187 171
344.564 346.154 -1107.53 73 58 36
498.258 31.6827 -1187.27 83 67 49
816.176 176.317 -1212.54 192 191 164
766.628 36.6163 -1217.19 137 141 128
776.175 36.3072 -1218.65 133 157 136
926.405 195.944 -1235.79 165 171 158
946.288 386.425 -1235.38 188 190 167
807.444 368.962 -1188.79 158 149 137
671.741 466.007 -1197.67 136 111 102
276.876 213.331 -1157.4 90 74 56
904.551 376.099 -1227.67 196 193 175
535.961 337.195 -1135.42 47 51 41
712.486 367.996 -1137.19 102 76 6
256.659 137.62 -1123.23 67 55 30
705.481 185.261 -1149.84 168 155 149
470.143 247.546 -1098.6 124 125 93
935.331 36.0255 -1246.13 255 231 204
644.386 190.645 -1147.25 184 180 159
226.842 138.554 -1121.16 83 60 28
704.701 289.011 -1121.06 148 141 130
956.302 97.167 -1242.23 203 205 187
645.993 358.268 -1179.14 151 144 129
852.369 415.629 -1198.09 142 128 113
464.354 -0.664313 -1199.86 77 61 34
422.615 38.1556 -1156.44 34 33 8
552.948 287.612 -1146.75 88 91 50
356.939 365.897 -1166.35 111 97 72
716.144 486.579 -1184.83 156 145 139
815.07 192.217 -1137.41 172 164 141
425.507 365.334 -1119.36 92 79 61
792.596 155.663 -1148.87 166 160 142
475.86 490.192 -1133.93 119 108 83
306.274 288.014 -1151.11 89 67 42
845.864 386.677 -1212.89 190 191 167
895.844 266.567 -1227.38 179 178 163
526.002 76.4078 -1083.21 33 40 28
336.142 376.309 -1104.93 70 62 38
224.603 188.745 -1166.43 92 75 50
642.361 388.594 -1140.9 79 82 47
516.782 177.535 -1142.67 135 127 106
734.884 320.884 -1176.77 212 207 187
160.227 354.835 -1167.78 59 60 32
746.045 26.8589 -1214.96 123 125 111
856.399 457.786 -1206.46 164 115 114
193.287 397.848 -1166.96 66 53 16
756.58 467.694 -1203.21 164 115 114
223.054 367.415 -1165.53 46 52 18
866.09 26.1897 -1235.87 255 231 204
365.945 110.929 -1158.03 36 33 7
502.831 310.878 -1104.91 42 51 38
532.855 21.1355 -1150.46 75 78 38
744.056 29.2702 -1180.09 169 143 139
553.858 199.462 -1149.96 117 116 96
724.135 168.136 -1149.92 167 163 146
881.637 25.8241 -1238 255 231 204
342.834 57.8624 -1161.31 35 29 8
355.821 19.0649 -1147.49 61 65 32
501.925 378.006 -1149.98 65 74 30
401.64 357.549 -1164.64 73 69 48
665.93 18.922 -1202.67 45 64 50
494.06 367.138 -1151.06 89 83 32
203.109 278.02 -1144.18 72 55 34
753.915 18.96 -1218.12 129 126 107
373.492 228.396 -1100.63 17 27 10
845.805 19.0346 -1233.51 255 231 204
865.794 126.651 -1224.46 203 205 187
357.425 318.601 -1159.87 108 102 81
816.943 156.527 -1212.79 198 204 179
336.469 278.248 -1150.48 88 76 53
216.687 418.41 -1169.32 91 77 61
326.796 388.809 -1170.33 98 83 60
235.337 1.96209 -1207.48 92 54 22
394.72 128.743 -1126.38 37 37 30
915.862 277.013 -1230.22 171 173 151
192.214 218.13 -1169.3 40 40 10
836.376 205.893 -1217.32 162 170 154
572.079 22.0491 -1147.56 90 93 49
543.151 493.889 -1149.43 162 152 125
547.138 99.5539 -1129.66 127 115 93
252.847 57.9727 -1166.28 39 35 5
686.875 298.068 -1168.65 250 254 243
256.318 336.655 -1157.24 91 76 50
552.316 219.78 -1148.92 153 156 98
785.822 276.54 -1205.28 170 169 152
655.92 418.109 -1190.96 128 119 110
207.076 89.3983 -1190.35 88 62 22
396.488 257.802 -1150.69 130 133 115
536.799 127.857 -1133.76 128 116 97
328.847 -16.1442 -1208.05 88 62 31
726.401 504.452 -1187.89 160 148 137
522.241 277.793 -1149.16 95 99 54
444.212 312.289 -1127.55 90 76 37
756.155 147.529 -1147.57 180 165 153
672.215 108.702 -1142.5 108 108 69
164.892 296.489 -1168.04 51 55 13
706.301 445.935 -1183.25 152 146 127
765.886 496.511 -1194.97 159 144 115
776.173 137.865 -1146.19 188 171 157
624.277 186.924 -1149.45 184 177 158
425.992 378.854 -1141.74 34 37 30
346.803 287.932 -1152.34 91 84 60
446.189 108.025 -1125.81 108 101 79
634.963 409.079 -1169.25 148 140 115
233.936 181.089 -1167.55 86 69 48
414.284 280.715 -1136.93 92 77 50
823.037 346.035 -1211.06 231 230 200
202.645 217.965 -1167.54 47 41 9
369.943 206.497 -1087.13 84 102 54
874.357 497.251 -1217.97 174 160 75
704.907 180.094 -1146.97 167 162 146
256.265 207.72 -1134.73 75 55 32
233.798 118.875 -1166.88 45 39 4
520.785 90.3756 -1166.75 37 46 33
675.982 487.077 -1177.27 151 137 125
476.745 476.252 -1133.68 116 109 85
285.007 109.425 -1181.57 94 69 33
172.086 365.439 -1168.61 48 50 18
636.542 456.251 -1168.75 145 131 112
744.435 129.216 -1156.07 164 159 147
207.253 207.842 -1133.14 75 54 22
472.791 19.7064 -1154.56 46 43 10
566.899 474.825 -1151.02 70 63 55
533.639 301.521 -1127.03 123 111 91
835.859 407.498 -1196.9 141 131 121
436.263 228.128 -1145.76 141 143 126
616.243 476.389 -1164.24 141 140 115
947.545 226.458 -1238.7 166 175 152
626.514 476.561 -1166.3 142 141 124
424.574 309.177 -1131.5 96 84 67
192.5 8.18686 -1170.3 44 41 4
635.75 476.949 -1167.69 144 132 114
284.471 338.096 -1154.49 82 82 46
873.864 456.493 -1217.73 174 160 75
366.448 397.664 -1173.02 106 92 68
794.539 99.94 -1160.61 149 148 128
254.804 221.867 -1157.74 98 76 50
383.185 218.885 -1100.38 15 24 7
742.338 254.887 -1192.87 198 197 182
756.117 476.216 -1193.63 145 149 132
515.916 466.554 -1142.86 152 150 119
434.676 -30.4894 -1206.1 79 63 39
463.871 431.495 -1158.67 36 44 25
776.895 177.625 -1152.98 162 157 145
366.357 306.509 -1113.21 71 55 29
403.034 287.329 -1122.35 16 26 9
774.125 9.09145 -1182.15 169 143 139
916.366 476.499 -1225.68 174 160 75
626.567 466.243 -1166.3 141 141 125
766.159 176.191 -1201.66 222 234 212
412.523 247.726 -1120.34 15 25 7
404.641 457.186 -1118.06 107 83 64
365.191 349.35 -1122.9 98 65 61
466.325 456.404 -1132.24 118 106 82
444.902 419.39 -1158.69 47 36 35
792.33 208.974 -1159.6 164 165 155
646.33 456.405 -1170.8 143 134 105
385.864 416.057 -1115.42 86 67 46
446.219 316.155 -1086.22 37 44 32
485.94 446.929 -1137.14 132 114 89
162.694 167.903 -1170.35 47 43 12
546.611 447.801 -1152.09 63 57 28
376.505 436.119 -1112.36 94 80 54
432.689 307.785 -1124.73 20 29 10
415.848 478.398 -1189.88 40 37 27
325.083 -40.4222 -1213.22 90 64 41
846.224 436.929 -1213.31 165 159 149
182.239 288.394 -1169.06 50 52 15
754.475 9.31436 -1184.02 169 143 139
306.571 348.264 -1161.47 103 85 63
533.3 259.276 -1147.64 113 115 66
343.921 210.57 -1080.28 32 42 20
554.17 229.211 -1143.18 119 116 97
716.213 425.832 -1186.21 159 150 128
474.725 189.518 -1121.5 32 36 26
552.657 161.419 -1145.98 125 127 83
212.548 288.08 -1167.15 54 52 18
736.01 427.804 -1194.28 136 123 108
296.359 278.11 -1149.44 87 62 36
227.752 245.074 -1137.61 76 58 30
922.485 426.351 -1230.48 177 160 143
286.342 260.392 -1105.81 45 43 11
386.022 448.215 -1182.95 99 85 73
346.274 416.061 -1106.47 68 54 40
426.074 416.188 -1124.34 105 87 63
276.442 177.543 -1130.79 68 51 29
234.438 188.378 -1166.3 94 74 54
713.173 347.923 -1136.21 102 76 6
476.105 416.169 -1134.76 132 123 94
485.971 416.325 -1137.04 140 131 104
573.639 155.654 -1158.83 119 114 95
566.86 417.589 -1154.23 63 65 54
292.47 10.576 -1164.12 33 31 1
682.999 415.403 -1180.41 146 140 120
766.593 347.901 -1182.29 166 155 145
695.781 416.843 -1182.25 152 147 127
606.091 298.359 -1164.67 207 200 181
691.848 132.939 -1157.74 151 142 124
263.182 9.55426 -1167.03 36 36 5
935.419 415.874 -1232.9 172 172 158
357.095 417.777 -1176.18 101 87 53
493.823 399.264 -1148.6 94 91 36
914.264 405.431 -1228.14 178 178 162
214.899 -41.1534 -1219.44 88 66 35
294.662 139.492 -1174.42 91 67 41
376.039 405.902 -1114.05 82 67 44
201.878 297.693 -1147.16 78 60 41
714.336 179.847 -1146.74 163 161 144
452.751 167.953 -1153.88 70 77 38
511.74 408.733 -1147.89 75 62 49
744.155 319.272 -1112.99 165 130 144
401.666 407.142 -1118.09 90 76 57
463.831 -37.7424 -1206.62 77 62 35
633.272 400.961 -1141.1 75 82 36
374.463 158.599 -1133.78 37 42 32
745.916 468.222 -1202.82 164 115 114
765.24 376.822 -1187.62 156 140 118
814.844 394.634 -1207.69 185 184 160
486.395 117.61 -1130.28 118 108 90
476.266 396.623 -1136.02 139 128 102
720.879 238.251 -1138.75 98 104 64
582.386 398.003 -1144.6 75 82 24
233.566 -43.6267 -1218.72 94 53 22
414.92 216.997 -1116.23 15 28 11
775.9 197.128 -1201.85 192 207 194
734.108 328.843 -1111.18 165 130 144
612.506 387.788 -1142.37 81 76 42
286.357 247.743 -1142.83 81 61 34
425.889 480.188 -1190.43 35 38 25
493.806 348.521 -1152.17 87 82 36
693.989 308.523 -1118.47 160 144 128
332.868 206.384 -1075.85 85 98 54
376.216 326.486 -1114.5 80 61 32
322.89 368.131 -1144.69 18 24 17
710.447 32.2346 -1138.06 102 104 41
936.269 347.835 -1236.07 245 249 207
466.644 458.355 -1163.9 33 47 24
745.825 206.499 -1194.96 202 214 204
312.89 87.5053 -1162.16 33 28 5
767.761 166.268 -1149.05 162 163 132
676.873 218.306 -1157.14 166 169 154
396.123 418.713 -1174 117 102 74
354.287 219.04 -1145.1 47 46 35
956.265 376.386 -1236.13 195 191 171
532.6 356.841 -1147.05 74 70 28
582.988 378.374 -1145.51 73 78 21
515.999 378.065 -1141.69 52 53 40
382.36 388.07 -1122.34 21 20 1
716.753 487.608 -1205.11 164 115 114
308.778 301.758 -1128.15 12 22 8
632.63 367.709 -1142.09 71 78 31
572.766 367.951 -1145.36 82 74 31
582.563 368.202 -1144.64 74 78 23
464.299 280.066 -1135.26 100 87 61
216.03 427.791 -1171.05 89 77 63
672.938 29.2807 -1142.21 102 104 41
756.991 486.417 -1207.12 164 115 114
302.844 199.699 -1070.77 101 110 54
714.704 438.091 -1197.33 146 120 104
804.386 305.853 -1208.16 180 181 163
755.041 235.676 -1197.69 191 193 178
522.439 87.8184 -1151.01 69 70 30
602.923 358.124 -1143.35 79 78 39
785.716 346.666 -1202.37 242 243 227
366.043 356.925 -1112.53 82 64 40
946.179 337.006 -1237.27 207 209 195
836.11 468.079 -1206.27 164 115 114
955.868 336.578 -1237.65 206 209 194
152.839 218.268 -1170.49 45 47 14
434.258 139.389 -1129.94 35 38 27
216.57 258.318 -1151.02 99 77 63
326.319 448.467 -1179.3 92 81 42
465.944 68.8468 -1140.96 41 43 30
213.924 129.692 -1182.46 91 66 43
424.556 390.664 -1149.71 37 40 32
543.326 347.816 -1147.1 75 72 30
273.194 303.067 -1137.85 92 75 43
526.158 347.352 -1147.5 130 131 99
732.487 347.675 -1134.92 102 76 6
644.439 179.413 -1150.23 179 172 150
366.291 346.594 -1112.08 84 65 37
613.229 338.042 -1142.5 77 78 49
766.55 237.173 -1163.9 181 180 157
916.174 326.718 -1231.21 203 200 186
936.232 325.563 -1237.51 203 199 186
654.886 19.0068 -1185.92 177 175 151
493.972 307.293 -1095.35 44 50 38
711.656 117.398 -1138.91 104 115 68
853.455 318.136 -1219.53 186 193 173
962.339 315.967 -1240.49 189 193 181
562.742 119.404 -1147.63 101 103 57
516.723 167.865 -1140.58 128 123 101
216.577 137.743 -1121.64 76 54 36
756.386 347.677 -1181.67 167 155 146
703.625 335.205 -1111.23 146 141 137
364.482 158.889 -1136.04 38 39 32
636.397 197.487 -1151.3 159 156 138
626.26 197.242 -1151.03 153 148 131
426.54 187.848 -1139.39 117 110 91
225.015 239.594 -1154.08 91 81 59
786.22 316.227 -1204.86 184 189 173
484.236 -20.8636 -1202.23 80 63 36
925.807 57.2746 -1237.06 203 205 187
476.116 326.454 -1136.8 121 118 92
765.072 91.198 -1138.06 188 171 157
236.642 447.777 -1175.14 78 77 58
395.994 328.884 -1163.03 98 100 78
734.852 106.658 -1196.39 211 224 189
482.358 315.121 -1129.47 115 107 68
412.511 359.771 -1117.42 39 39 19
534.794 -21.3362 -1200.42 95 78 58
726.881 307.545 -1175.08 232 234 222
162.369 366.47 -1168.78 40 60 16
594.333 244.614 -1096.58 48 51 41
857.472 285.994 -1219.62 176 174 156
714.566 -0.239649 -1186.91 144 133 112
244.115 148.946 -1175.16 88 64 39
352.382 276.165 -1115.89 16 24 8
806.98 178.532 -1154.48 163 156 146
423.185 288.225 -1125.56 19 28 10
524.732 299.323 -1147.9 104 106 75
684.514 239.269 -1134.33 173 165 148
152.603 287.828 -1170.8 45 49 18
740.35 285.413 -1180.51 215 218 198
383.534 247.337 -1129.33 125 118 87
895.937 276.539 -1227.93 169 171 150
594.293 339.036 -1115.95 158 156 141
796.091 186.695 -1207.05 184 199 183
916.403 266.097 -1232.7 177 178 163
714.42 309.851 -1117.17 148 141 129
754.676 239.638 -1130.42 167 159 135
516.808 107.85 -1130.31 124 111 95
698.808 391.696 -1188.29 152 130 134
806.511 388.696 -1192.1 154 137 116
652.792 98.1309 -1142.51 99 106 65
741.881 108.202 -1137.22 104 108 67
633.987 228.308 -1139.11 214 203 184
214.293 141.349 -1176.27 86 66 36
505.934 286.598 -1144.98 94 93 70
666.671 447.157 -1194.66 129 115 89
606.464 317.459 -1169.67 206 200 185
835.818 266.532 -1215.36 174 180 171
256.542 427.601 -1172.48 97 73 45
296.874 128.15 -1122.73 73 53 40
676.213 317.757 -1172.88 212 216 202
444.534 289.212 -1134.54 101 83 60
402.386 200.818 -1155.9 34 34 10
935.666 256.764 -1234.66 169 179 164
404.169 449.871 -1178.95 130 128 63
152.549 298.029 -1171.05 43 43 14
285.66 317.22 -1147.14 54 53 15
594.514 128.977 -1163.39 135 128 109
525.966 278.279 -1147.94 99 103 62
370.865 188.784 -1139.13 55 52 38
706.797 498.762 -1206.32 155 117 110
541.605 236.18 -1149.09 144 149 97
336.341 467.835 -1183.16 95 73 40
925.512 235.851 -1234.45 170 177 155
462.754 48.0776 -1154.04 42 44 15
482.911 268.021 -1143.8 124 139 94
766.359 246.278 -1201.05 184 185 169
485.501 222.74 -1107.95 34 37 28
553.685 258.986 -1149.09 113 110 67
466.193 447.898 -1161.17 34 47 24
596.486 317.744 -1166.27 150 151 134
762.217 210.187 -1158.85 166 167 158
302.992 127.672 -1162.42 37 33 3
714.069 249.24 -1131 157 154 141
236.573 188.204 -1130 69 54 27
686.639 487.943 -1203.83 128 124 73
362.438 267.824 -1113.85 16 25 8
594.511 259.535 -1106.39 40 44 32
634.367 209.781 -1095.96 140 141 121
553.774 148.011 -1149.48 108 110 65
835.776 227.106 -1216.35 172 181 156
532.509 248.321 -1149.14 116 122 75
825.555 206.612 -1213.71 163 170 154
807.122 214.805 -1209.89 168 169 156
385.504 249.412 -1126.17 93 79 54
292.796 107.894 -1162.88 33 29 3
506.89 177.69 -1141.37 133 125 102
576.939 247.754 -1091.16 64 66 52
342.251 177.792 -1160.78 32 33 7
204.199 358.575 -1166.04 51 50 13
246.665 197.854 -1132.4 73 54 30
472.849 198.52 -1146.23 109 133 82
376.789 287.921 -1154.76 100 99 79
706.651 220.636 -1159.57 162 161 141
513.672 161.403 -1136.68 42 50 39
785.889 186.342 -1205.01 192 208 193
434.727 470.022 -1179.32 40 34 25
254.071 224.731 -1137.51 67 50 18
703.614 201.165 -1167.87 199 195 168
594.018 285.293 -1128.58 158 147 131
777.105 347.67 -1183.32 166 155 144
716.652 184.481 -1192.47 210 212 190
244.757 218.958 -1158.63 96 76 56
656.489 207.894 -1153.09 161 162 147
946.216 146.204 -1237.72 196 202 180
926.672 146.406 -1236.09 195 203 180
935.865 146.275 -1235.8 197 203 182
485.975 187.846 -1142.35 131 128 107
395.982 237.437 -1146.93 126 127 109
332.614 97.9987 -1161.17 37 33 4
817.444 245.778 -1166.77 190 188 175
543.848 179.274 -1155.23 108 106 88
956.677 126.321 -1243.05 207 215 191
422.371 167.892 -1156.04 47 51 18
543.483 170.023 -1157.06 107 108 86
427.085 278.349 -1154.25 109 113 86
564.489 -0.672937 -1193.97 110 98 79
626.216 136.202 -1172.97 172 164 147
480.607 80.7149 -1147.89 42 43 34
964.159 87.3332 -1244.78 203 205 187
614.199 129.177 -1163.54 144 139 121
956.13 76.1062 -1243.8 203 205 187
356.023 156.229 -1114.61 65 46 26
426.477 267.919 -1152.46 88 88 65
343.215 88.2258 -1160.58 34 31 5
574.486 119.532 -1166.54 124 121 100
646.105 106.696 -1176.92 149 145 124
285.571 280.841 -1148.51 85 64 34
764.109 75.9258 -1168.5 134 132 102
543.042 117.769 -1149.99 97 99 56
725.715 86.6186 -1195.45 215 227 199
744.341 87.4457 -1197.72 205 252 197
416.697 308.007 -1073.43 94 97 75
755.014 117.687 -1159.05 160 152 132
254.853 369.561 -1123.75 90 62 53
493.85 119.961 -1145.55 34 39 31
372.303 387.938 -1126.23 14 23 10
321.304 168.332 -1165.41 87 63 38
766.416 78.5393 -1203.62 219 236 211
402.994 67.7333 -1157.06 33 31 7
677.484 448.045 -1196.37 137 123 108
182.584 97.4837 -1169.66 43 38 6
195.255 181.196 -1167.89 40 42 10
302.552 11.1184 -1163.31 32 30 5
335.83 366.71 -1166.09 103 88 61
692.767 168.077 -1140.89 104 113 68
226.385 428.773 -1171.4 71 76 71
776.332 477.471 -1204.88 164 115 114
686.499 506.94 -1204.69 128 123 74
536.924 68.403 -1179.35 159 166 143
724.445 278.817 -1123.46 160 142 126
706.034 508.043 -1207.19 153 118 109
742.04 514.895 -1210.91 164 115 114
533.99 202.044 -1117.17 167 182 159
852.066 525.026 -1219.37 164 115 114
866.299 525.91 -1222.11 164 115 114
656.583 407.91 -1189.68 133 123 113
823.086 249.336 -1125.14 161 153 139
397.431 478.477 -1189.81 133 120 74
686.017 357.948 -1180.58 160 156 145
253.92 138.73 -1176.76 91 63 35
406.93 189.121 -1139.21 100 92 73
522.134 347.929 -1149.2 75 71 35
766.161 508.688 -1211.28 164 115 114
502.712 38.1356 -1151.79 62 61 24
797.015 507.895 -1212.15 164 115 114
523.112 311.232 -1115.99 44 50 39
316.48 468.221 -1183.48 102 80 49
596.73 467.708 -1155.1 204 203 192
602.86 467.83 -1155.25 127 115 111
686.426 427.56 -1192.66 136 122 102
636.558 487.996 -1201.58 129 113 75
407.531 354.471 -1117.58 71 65 44
766.467 498.35 -1209.87 164 115 114
796.494 498.383 -1210.04 164 115 114
483.864 237.774 -1100.9 56 60 37
416.611 467.69 -1182.69 41 37 27
697.352 488.573 -1206.32 137 116 102
364.154 394.511 -1127.42 15 21 3
766.172 117.934 -1142.92 188 171 157
705.761 487.908 -1204.89 154 117 109
202.151 190.21 -1167.49 41 37 7
645.687 127.369 -1137.41 165 162 144
597.218 457.758 -1155.38 216 217 203
674.113 305.417 -1137.99 87 96 58
513.246 328.351 -1149.8 76 75 36
184.186 377.879 -1166.72 54 47 14
677.062 477.609 -1200.82 135 121 107
306.736 447.881 -1178.73 105 81 48
316.05 448.088 -1179.1 105 80 50
716.138 478.303 -1203.4 164 115 114
746.044 477.6 -1204.14 164 115 114
572.687 298.567 -1145.32 84 89 48
404.63 -0.515138 -1200.47 81 58 35
427.146 447.814 -1172.91 34 38 22
375.849 448.032 -1182.69 114 83 70
808.729 481.421 -1208.22 164 115 114
332.805 18.2908 -1161.8 36 31 5
296.217 438.322 -1176.09 106 81 51
682.693 88.0077 -1141.47 98 106 60
