ply
format ascii 1.0
comment Created by Open3D
element vertex 1352
property double x
property double y
property double z
property uchar red
property uchar green
property uchar blue
end_header
583.93 -151.66 -1164.68 57 70 55
867.892 -106.363 -1163.94 189 253 250
193.319 -26.6473 -1174.21 162 200 202
549.54 -102.17 -1153.17 50 60 45
-17.0502 44.1487 -1177.93 160 225 232
128.423 13.0505 -1174.66 149 200 203
878.976 -22.0324 -1164.24 191 240 239
655.339 508.861 -1167.43 25 44 27
949.509 337.928 -1161.58 191 237 231
721.626 -3.35877 -1088.73 72 80 65
73.1931 18.7033 -1173.88 142 208 216
63.5786 34.3629 -1173.9 153 210 216
143.657 478.505 -1175.69 126 176 171
808.744 218.579 -1164.82 140 187 181
403.22 508.988 -1110.05 50 61 38
183.204 -86.5196 -1174.72 155 233 240
569.057 3.51473 -1134.61 64 62 42
708.158 363.491 -1160.82 30 38 27
928.147 259.003 -1166.26 193 231 228
519.921 314.289 -1086.6 43 50 32
563.4 499.277 -1159.87 58 62 53
1088.25 68.597 -1159.35 149 190 193
893.568 98.1982 -1165.92 180 236 236
148.832 -136.325 -1178.31 132 205 207
1038.25 -61.3843 -1160.53 96 133 119
469.031 23.6977 -1119.15 45 55 40
379.957 148.064 -1124.11 48 48 28
548.675 468.464 -1157.13 54 56 36
424.028 -70.9775 -1135.32 54 68 56
302.872 153.594 -1121.34 43 51 36
1103.16 332.39 -1164.3 179 241 248
108.842 208.714 -1175.21 130 192 194
628.334 477.707 -1154.78 45 53 29
943.921 -26.5861 -1164.59 187 242 241
764.124 488.544 -1166.03 63 59 57
414.806 224.214 -1145.44 28 36 21
828.484 -130.973 -1164.49 171 225 227
348.411 -27.0661 -1156.23 39 48 30
457.259 -10.2858 -1132.84 42 52 36
284.005 433.376 -1066.11 56 70 51
1043.9 353.718 -1160.03 187 240 241
48.2238 518.354 -1179.81 150 193 201
182.865 149.303 -1152.53 70 78 65
463.768 519.022 -1150.2 52 60 39
219.607 407.881 -1082.48 154 170 162
668.586 -5.63073 -1135.94 49 62 48
1138.07 74.9741 -1166.08 92 112 94
868.549 394.701 -1163.77 177 252 250
803.813 -37.0858 -1165.39 172 226 224
983.468 518.703 -1166.11 188 244 237
510.96 -123.02 -1153.31 69 86 70
783.258 -36.7374 -1164.25 178 217 216
497.377 43.038 -1099.39 42 54 40
289.052 -166.316 -1170.08 174 205 205
878.411 -80.7901 -1161.68 179 236 234
299.31 613.287 -1175.08 144 148 138
1023.87 69.1239 -1161.07 191 234 242
1108.61 9.86414 -1159.86 159 173 168
719.379 623.245 -1167.77 198 213 211
608.284 648.227 -1170.88 191 197 189
768.651 438.594 -1164.62 149 199 202
228.051 473.682 -1170.94 140 165 158
83.5949 253.15 -1175.79 128 191 196
1119.16 438.777 -1164.39 177 236 233
1018.75 574.001 -1166.5 204 235 243
393.285 554.25 -1165.13 70 65 45
948.6 459.02 -1165.42 183 241 240
458.409 118.613 -1083.77 42 53 38
284.127 428.48 -1066.72 58 71 50
894.068 -10.9583 -1162.48 170 208 210
314.004 138.955 -1120.85 37 52 34
564.779 158.506 -1071.46 47 56 41
898.977 -2.10253 -1163.29 189 244 241
813.935 359.193 -1158.44 118 125 114
277.854 283.612 -1118.45 45 48 33
637.668 93.9388 -1054.82 36 41 27
179.016 84.9799 -1171.98 126 168 161
713.597 609.355 -1170.33 175 226 243
613.366 203.801 -1014.97 45 56 40
1049.17 204.588 -1162.99 198 237 232
628.499 488.369 -1155.1 46 51 27
383.443 348.468 -1116.07 45 51 35
233.306 308.757 -1126.37 61 71 57
1043.67 433.831 -1166.24 179 250 249
403.757 54.2163 -1131.84 39 50 36
942.521 182.942 -1160.36 153 209 213
878.807 393.394 -1167.56 173 215 214
219.357 213.466 -1135.6 50 51 33
502.879 -165.972 -1166.31 62 73 56
1037.73 24.2108 -1162.77 109 134 129
814.165 158.813 -1165.09 149 191 184
-21.3018 -6.19214 -1176.21 181 233 232
163.316 233.119 -1150.17 57 73 51
752.436 588.833 -1166.21 187 221 220
948.281 384.767 -1161.87 178 237 234
702.509 549.206 -1165.93 159 218 224
928.704 483.148 -1165.19 185 244 240
644.389 223.313 -961.174 43 50 37
1028.43 528.652 -1161.52 187 233 227
633.441 479.278 -1152.28 58 65 45
888.19 609.723 -1168.52 199 232 245
964.112 139.027 -1163.41 191 230 232
853.102 383.379 -1164.61 163 220 220
1029.7 83.6063 -1161.29 189 236 237
573.497 -105.545 -1157.48 61 70 50
468.153 59.4032 -1090.89 42 56 39
884.439 343.949 -1161.8 156 199 195
478.403 -176.319 -1164.93 76 86 67
442.426 570.844 -1153.41 29 50 31
1003.74 183.269 -1164.3 182 223 219
403.6 303.877 -1131.15 38 46 31
118.688 408.091 -1175.47 135 187 188
98.9824 -175.657 -1174.54 151 219 225
578.509 43.6376 -1119.07 39 52 35
824.337 333.142 -1163.64 130 173 172
607.941 247.197 -1064.96 23 27 15
378.049 314.931 -1130.66 40 48 28
719.599 337.289 -938.668 45 46 34
800.702 359.851 -1138.01 50 41 36
88.2019 138.776 -1174.22 125 186 190
813.512 154.103 -1165.6 148 189 181
583.803 27.1376 -1133.21 67 73 57
938.486 -55.3286 -1159.82 50 85 58
418.553 -51.8671 -1138.52 45 55 38
219.448 573.274 -1175.75 125 141 132
434.788 363.46 -1119.24 30 39 22
754.658 325.606 -1048.54 25 41 28
758.92 563.148 -1164.9 148 202 208
99.0308 508.584 -1179.64 122 191 193
161.91 79.5321 -1172.04 129 187 191
752.799 173.237 -1167.44 131 178 173
573.202 24.1746 -1131.57 51 60 43
968.186 233.717 -1166.13 184 241 245
423.943 -31.476 -1140.45 39 47 36
1088.4 343.745 -1160.3 117 147 142
593.169 388.802 -1135.46 38 42 36
697.367 284.13 -879.484 72 95 96
683.514 453.538 -1159.44 32 48 31
48.7054 489.205 -1179.36 150 201 206
984.454 302.856 -1162.68 161 205 204
998.771 313.033 -1163.77 187 237 234
169.629 603.054 -1178.87 165 193 197
913.268 498.478 -1166.03 99 110 101
204.232 134.609 -1151.41 36 45 34
498.32 589.646 -1173.92 51 59 36
1118.07 624.384 -1167.9 199 232 245
779.454 513.265 -1165.05 206 218 213
299.007 -176.541 -1168.35 168 201 197
477.006 -109.697 -1136.77 77 88 69
354.812 -94.1999 -1150.73 68 85 59
407.773 388.485 -1123.33 32 45 26
443.319 -0.401098 -1132.32 46 58 39
1083.75 -40.9735 -1160.48 100 115 106
522.683 -40.8946 -1136.08 54 63 47
454.339 649.783 -1174.72 79 76 58
288.143 418.454 -1065.95 65 76 55
103.537 218.725 -1173.35 134 188 188
648.297 87.677 -1014.84 54 63 49
233.996 548.923 -1174.92 128 152 141
657.865 513.976 -1164.54 44 49 56
63.3119 157.902 -1176.59 121 187 190
542.794 59.7145 -1092.14 47 60 44
339.507 474.612 -1074.6 66 69 42
824.175 58.0243 -1165.89 151 198 196
252.453 343.302 -1103.95 45 63 45
949.039 -16.0316 -1163.21 189 241 243
200.157 -155.226 -1175.68 138 202 208
830.007 268.879 -1167.21 140 184 181
3.81261 429.253 -1175.63 153 198 211
440.001 108.532 -1091.23 27 37 24
233.919 -6.47159 -1164.73 106 130 119
399.665 163.058 -1130.01 32 35 20
609.241 77.2324 -1097.81 42 50 35
228.831 524.228 -1178.62 111 157 162
228.457 313.388 -1125.76 53 69 51
1053.82 168.348 -1160.3 187 234 226
399.006 403.391 -1109.38 51 49 39
988.84 433.194 -1166.1 189 246 238
743.617 523.871 -1164.46 49 51 43
924.282 463.062 -1164.83 186 222 221
642.97 67.1899 -1097.86 57 64 49
449.926 98.6871 -1084.72 49 58 35
968.934 -56.4226 -1163.81 198 255 252
834.34 48.448 -1163.79 159 196 191
528.619 -6.14002 -1130.13 53 66 48
621.729 270.3 -1091.62 21 25 12
353.91 358.397 -1095.15 51 55 40
969.841 28.0609 -1162.23 196 234 234
28.9224 344.26 -1175.97 150 198 198
715.529 54.9423 -1005.18 70 60 48
789.807 113.016 -1164.07 143 185 174
708.421 438.922 -1161.43 44 44 38
843.903 418.758 -1165.96 168 219 213
313.318 179.348 -1122.01 45 59 41
754.838 647.64 -1165.38 195 221 211
47.7874 53.4543 -1177.84 133 194 203
888.718 -71.0445 -1164.04 73 115 95
643.505 619.325 -1171.77 196 203 207
1008.58 198.781 -1161.31 186 229 227
583.517 473.974 -1152.83 43 52 34
221.545 -97.9556 -1172.34 177 218 222
447.837 563.57 -1147.77 30 52 25
204.043 94.0685 -1164.89 52 60 44
437.606 -24.8526 -1137.89 40 48 31
1118.58 -70.4462 -1162.46 50 85 58
618.445 543.832 -1165.73 85 80 63
388.678 138.027 -1126.04 28 37 21
688.182 482.647 -1163.74 30 45 36
439.982 484.605 -1149.32 45 47 34
908.843 528.346 -1165.83 179 217 220
535.503 62.2538 -1087.66 40 55 37
93.2725 273.977 -1175 128 187 189
672.64 168.916 -929.705 67 87 75
258.871 -65.9969 -1171.52 170 202 195
378.701 -91.4624 -1139.95 79 89 77
54.1553 547.874 -1178.33 156 194 198
407.603 313.263 -1133.5 40 45 30
873.78 449.343 -1165.46 182 242 242
698.787 60.0181 -1016.19 62 66 53
88.656 188.559 -1175.92 126 189 191
773.711 484.198 -1163.6 66 65 52
181.528 -180.5 -1172.42 164 217 221
607.898 263.984 -1097.75 29 34 23
948.839 103.499 -1167.93 180 230 233
978.189 33.5381 -1165.36 184 233 235
354.221 633.854 -1174.72 145 156 153
378.768 554.575 -1171.84 119 138 127
468.894 43.2306 -1103.94 41 54 36
384.402 598.777 -1175.19 83 90 79
578.286 589.414 -1169 75 86 68
609.579 638.319 -1171.17 191 196 189
293.198 320.242 -1100.74 51 60 40
1028.54 -71.0165 -1160.98 155 212 202
743.336 -52.4881 -1163.2 157 195 200
88.5373 418.731 -1176.15 130 190 190
293.155 228.79 -1130.68 36 48 29
694.57 524.919 -1167.69 87 120 115
237.667 563.792 -1169.99 42 90 81
864.463 263.037 -1163.58 139 191 189
630.956 125.062 -1026.91 25 26 15
469.77 523.315 -1153.27 48 55 35
428.991 -80.9617 -1136.34 58 69 55
259.609 -97.5485 -1172.1 177 213 211
724.468 443.912 -1159.94 95 89 57
438.749 317.921 -1120.51 43 48 28
988.466 523.225 -1163.84 189 240 235
38.8643 483.378 -1179.55 131 198 203
283.644 -2.60815 -1161.57 74 69 48
123.703 133.627 -1174.72 127 187 187
954.21 283.31 -1166.45 152 198 197
253.965 -151.298 -1169.79 177 215 211
-24.8851 119.271 -1179.32 133 219 231
173.698 -31.1268 -1175.33 142 205 207
938.215 353.821 -1166.16 188 236 235
699.156 195.031 -880.889 99 112 105
503.921 -5.22515 -1126.69 48 60 44
374.765 59.1875 -1141.29 39 50 35
518.277 269.241 -1101.82 39 45 29
1037.42 595.169 -1159.42 199 232 245
154.934 -56.5114 -1171.63 167 212 216
1013.77 408.522 -1164.55 182 246 235
354.976 3.49864 -1170.28 49 54 35
384.35 608.738 -1175.48 140 147 138
1058.56 418.941 -1160.5 189 247 239
442.823 576.211 -1160.09 24 53 23
384.824 -104.691 -1146.94 94 104 88
868.738 304.3 -1165.39 140 189 186
512.987 393.857 -1135.07 27 33 18
448.779 73.3874 -1094.33 32 43 28
1033.92 523.317 -1158.55 193 220 215
927.745 554.18 -1167.38 199 232 245
868.868 549.239 -1165.65 198 230 240
243.619 213.797 -1130.4 41 46 25
1033.37 448.495 -1161.54 188 245 237
674.063 -41.0833 -1145.66 68 88 77
1103.13 374.254 -1160.53 44 58 48
-6.78284 139.351 -1175.92 135 211 226
1092.82 578.821 -1165.41 199 232 245
443.052 39.259 -1120.26 36 45 30
767.932 519.142 -1169.04 87 99 103
417.678 286.678 -1142.55 38 44 25
108.459 -21.6398 -1175.59 152 210 216
798.404 424.452 -1168.62 168 228 220
938.546 403.184 -1163.82 181 243 236
133.687 213.332 -1169.41 127 187 189
1094.84 327.332 -1164.9 139 193 191
143.866 498.627 -1174.71 168 206 217
424.164 113.257 -1101.18 37 42 26
1113.19 -111.834 -1156.28 50 85 58
438.606 422.343 -1142.19 45 47 31
548.508 483.592 -1160.17 60 62 41
972.694 348.75 -1160.83 169 213 214
1072.82 -121.042 -1160.03 50 85 58
237.93 333.586 -1114.8 43 60 46
28.2315 453.421 -1178.89 133 197 200
642.839 212.984 -982.622 20 34 18
991.153 26.9804 -1162.3 195 234 237
639.013 43.5283 -1125.11 44 50 35
714.277 -141.372 -1165.81 174 232 234
173.446 393.687 -1178.44 104 151 142
263.947 208.714 -1126.21 38 45 28
258.097 -121.424 -1175.41 69 95 78
719.295 312.825 -1124.04 47 52 39
98.0333 348.75 -1175.14 133 188 190
764.219 298.271 -1170.05 117 163 158
28.437 368.216 -1176.19 128 201 215
615.269 231.901 -1006.86 47 47 35
1122.87 228.387 -1158.63 70 103 96
673.039 164.144 -933.353 77 91 83
513.304 -36.8338 -1134.82 54 63 45
1093.38 149.138 -1160.3 73 117 97
33.8456 272.943 -1176.43 130 192 199
1028.05 429.751 -1164.4 182 240 240
8.84564 433.792 -1175.69 154 200 214
988.461 153.379 -1163.59 183 230 229
349.064 -5.04469 -1163.88 44 56 40
308.751 218.585 -1131.02 37 45 26
358.504 298.827 -1134.66 42 47 30
1104.96 192.845 -1160.78 146 185 177
143.829 460.185 -1178.32 123 176 170
869.271 499.303 -1165.73 175 222 219
328.363 464.196 -1069.98 65 71 54
942.819 544.156 -1161.47 196 230 241
338.623 40.2169 -1156.24 47 59 41
552.75 -106.571 -1149.88 51 64 53
202.662 459.623 -1177.94 105 160 159
1013.46 188.885 -1164.24 187 223 222
114.67 553.185 -1178.4 154 188 194
573.605 203.991 -1085.05 19 22 9
599.271 434.164 -1149.08 40 47 32
353.917 23.2011 -1159.5 51 58 41
548.738 382.76 -1116.07 30 34 17
468.092 193.899 -1108.75 33 39 25
287.661 -62.4865 -1163.51 158 195 188
482.941 49.0615 -1095.35 43 53 38
883.364 58.6187 -1166.23 178 232 231
621.456 273.065 -1041.44 21 22 11
12.5782 424.662 -1179.38 125 197 204
338.495 393.762 -1071.75 68 75 49
933.35 -96.0425 -1163.68 50 85 58
277.798 -5.43059 -1154.38 51 65 51
1093.83 318.651 -1165.03 133 175 170
543.455 380.456 -1112.69 28 32 16
858.428 429.195 -1168.64 191 241 240
252.7 174.502 -1120.57 45 59 40
642.439 -25.7833 -1158.26 59 70 52
1113.17 544.762 -1156.4 199 232 245
388.509 -71.6389 -1137.29 58 76 71
309.028 493.449 -1060.73 105 121 111
479.403 443.693 -1170.87 47 51 29
873.41 -161.544 -1161.7 200 255 245
814.864 313.573 -1168.65 132 182 179
189.982 -102.024 -1172.7 135 198 203
1118.73 433.19 -1164.24 175 233 234
603.706 238.625 -1019.77 39 43 29
312.203 435.283 -1061.33 65 74 48
723.778 648.397 -1170.17 195 209 200
333.56 388.529 -1071.32 78 76 60
493.368 -119.437 -1144.59 71 82 61
289.057 72.9422 -1143.14 43 52 37
313.206 178.665 -1125.22 41 51 28
64.7367 -126.041 -1178.46 134 210 223
799.02 138.165 -1167.27 143 190 183
254.567 649.005 -1177.58 157 178 176
694.184 634.118 -1170.96 197 205 200
263.509 29.2397 -1156.08 46 51 37
809.662 258.236 -1168.58 138 185 178
88.3619 492.538 -1175.87 129 191 201
978.537 164.724 -1161.47 178 227 214
644.68 330.182 -1127.28 30 27 13
3.03306 259.159 -1175.81 129 198 207
168.37 567.497 -1180.08 134 182 175
998.359 109.489 -1163.88 188 236 239
553.539 174.425 -1082.66 47 60 46
639.344 548.626 -1172.7 143 154 145
203.745 548.988 -1176.46 103 168 172
933.038 459.365 -1169.31 183 248 246
238.445 -135.555 -1171.04 177 218 216
857.672 153.418 -1166.22 146 194 188
978.793 83.7585 -1165.41 199 239 239
148.717 314.234 -1176.78 109 163 157
589.492 623.19 -1171.14 186 199 194
1118.43 -5.66278 -1159.07 108 121 99
691.846 192.893 -894.153 88 118 113
609.015 354.116 -1119.28 38 43 25
1048.74 298.267 -1161.69 182 231 224
383.966 98.7503 -1125.21 35 43 26
153.311 359.338 -1175.82 116 164 161
473.916 519.376 -1157 54 56 38
339.098 -12.1505 -1161.53 49 54 39
46.9531 434.923 -1177.96 145 202 207
242.668 129.164 -1132.42 51 63 51
1053.27 494.641 -1165.5 182 246 242
693.517 183.348 -894.447 93 116 107
623.088 267.011 -1079.65 24 27 13
423.277 348.113 -1123.91 44 49 29
9.18294 414.35 -1178.28 150 204 219
678.266 69.1162 -1019.74 54 61 43
558.094 498.242 -1159.84 55 68 46
48.5654 29.3083 -1174.22 135 202 209
574.109 382.482 -1120.08 35 35 17
1008.34 -36.1869 -1159.83 167 207 203
753.756 419.062 -1166.29 62 70 58
188.816 79.1954 -1167.33 55 71 59
764.165 449.287 -1167.67 178 239 242
498.464 -166.551 -1165.42 67 80 60
1122.69 275.818 -1158.74 181 230 231
464.639 238.575 -1120.9 36 44 29
233.175 -50.9025 -1174.1 155 193 186
294.039 414.385 -1067.63 59 69 60
1114.26 293.366 -1162.9 138 181 183
513.309 -105.428 -1141.31 70 85 66
608.18 29.1751 -1139.35 45 54 35
538.159 73.5554 -1081.01 45 59 43
731.498 12.0784 -1053.32 42 54 56
338.924 188.715 -1135.12 35 42 27
888.805 449.195 -1167.85 173 238 237
313.811 409.003 -1064.76 62 72 50
702.791 111.266 -943.047 78 103 88
384.099 174.099 -1129.64 46 45 23
657.378 238.233 -919.238 40 51 37
641.727 127.775 -987.731 47 51 39
528.708 504.021 -1160.35 53 58 38
194.572 622.949 -1176.17 140 158 155
642.256 314.172 -1106.66 32 36 18
653.633 373.902 -1154.56 38 40 24
113.397 203.253 -1175.01 127 185 187
473.312 509.182 -1155.65 49 50 44
533.558 -171.709 -1164.69 74 89 75
503.726 394.256 -1134.32 27 38 19
719.571 358.261 -1164.07 50 50 38
583.345 59.9447 -1106.12 51 57 41
779.471 243.713 -1164.95 127 167 158
644.764 243.862 -955.685 41 48 39
329.578 593.375 -1175.76 104 121 107
1113.03 -95.7726 -1157.62 50 85 58
968.985 74.6835 -1163.79 196 234 232
498.1 329.293 -1093.7 60 60 40
133.412 -132.273 -1176.44 161 223 228
754.95 623.536 -1168.75 199 220 214
714.038 14.6149 -1075.48 57 66 54
728.53 -171.956 -1162.06 181 220 220
739.04 208.547 -1169.33 133 171 163
83.2201 168.825 -1173.76 136 193 195
359.361 468.526 -1085.33 51 62 40
641.883 143.586 -984.217 35 39 27
723.169 83.3088 -944.732 59 63 52
138.088 273.085 -1168.62 139 184 181
372.396 142.463 -1132.96 32 37 21
646.814 178.832 -959.461 50 59 48
568.722 112.704 -1079 45 56 40
829.739 239.014 -1165.99 142 188 183
703.209 330.883 -960.458 54 52 40
799.48 363.682 -1143.28 50 53 58
412.511 487.194 -1120.92 47 52 34
773.006 554.063 -1165.85 179 236 243
63.1839 28.1867 -1174.58 155 210 217
993.635 163.26 -1164.01 178 223 217
693.626 548.391 -1165.97 164 213 209
73.4514 118.54 -1176.62 126 190 197
855.166 158.448 -1165.34 144 193 187
918.075 457.801 -1166.04 178 223 228
1013.28 523.652 -1165.53 187 242 234
88.6781 223.552 -1175.09 127 182 183
98.7327 -11.0767 -1175.95 155 207 214
173.475 448.75 -1177.24 129 169 167
993.346 503.771 -1169.63 197 247 246
638.35 100.402 -996.904 38 42 28
793.568 469 -1167.86 178 231 233
1123.1 144.72 -1159.67 118 148 131
933.486 457.85 -1166.09 186 242 237
338.936 173.119 -1131.45 36 44 29
3.51344 -0.640632 -1179.98 170 224 236
1063.75 -67.2078 -1159.37 190 250 245
543.396 443.902 -1153.78 44 49 30
412.983 -176.819 -1166.52 67 91 77
918.169 248.635 -1165.26 188 236 238
1078.06 608.348 -1162.96 199 232 245
623.628 94.235 -1075.85 41 48 34
78.5424 313.414 -1175.68 132 192 195
1143.31 405.145 -1167.44 182 229 226
433.412 313.445 -1124.34 41 46 28
1054.29 634.066 -1166.77 199 232 245
297.961 449.46 -1060.79 44 84 57
434.493 518.484 -1134.47 58 49 45
548.336 438.372 -1149.56 52 55 37
527.466 473.222 -1166.37 64 59 32
679.668 238.286 -890.818 72 85 73
263.968 -76.2533 -1169.47 144 178 171
902.801 -135.498 -1164.49 50 85 58
358.654 522.34 -1074.72 67 78 58
404.243 -46.6179 -1141.63 42 49 37
633.378 29.2933 -1137.33 61 74 61
903.478 317.721 -1164.91 203 234 224
588.924 -166.335 -1164.65 44 58 38
589.092 255.1 -1110.63 39 53 40
378.947 -10.8365 -1159.82 36 45 29
347.032 480.256 -1070.08 47 74 67
133.878 103.438 -1174.92 124 185 186
363.795 -11.2665 -1164.22 45 54 33
-6.51775 394.299 -1175.18 134 203 214
472.981 273.758 -1114.24 41 50 34
331.877 334.19 -1097.26 49 55 37
723.243 534.299 -1167.33 173 228 242
763.665 573.629 -1170.25 184 229 224
128.99 538.589 -1179.78 125 187 190
998.46 -176.434 -1156.91 200 255 245
615.063 -85.3924 -1157.13 48 49 31
343.469 153.316 -1133.23 33 43 25
64.2472 218.959 -1179.5 144 197 193
568.829 387.992 -1125.58 36 41 27
1077.93 394.386 -1162.42 178 230 234
194.057 -147.154 -1171.67 173 223 219
388.373 28.4291 -1153.34 36 47 36
422.53 428.473 -1134.3 43 45 27
633.065 249.031 -985.074 38 43 30
954.03 83.5657 -1163.39 186 233 232
482.988 384.757 -1129.79 32 38 19
683.254 459.035 -1159.78 33 49 30
113.946 462.629 -1175.21 114 190 195
84.2965 643.866 -1177.72 182 198 201
308.284 28.9516 -1158.22 41 50 33
123.967 224.17 -1174.35 130 189 190
418.471 358.65 -1120.49 40 52 30
473.688 642.811 -1173.3 79 70 61
348.868 347.531 -1098.41 54 56 40
716.711 1.36811 -1087.88 67 80 67
514.092 623.847 -1171.15 97 87 65
118.293 485.255 -1177.22 133 191 191
608.231 -81.503 -1160.96 59 69 52
614.01 -56.1178 -1159.89 62 68 53
701.916 167.485 -900.27 87 103 83
697.222 76.263 -988.303 77 87 84
668.805 618.388 -1168.03 187 204 206
340.004 -111.209 -1158.96 28 54 34
189.329 347.895 -1109.67 120 170 170
509.451 228.671 -1097.91 24 33 18
993.334 -45.5818 -1163.34 76 111 91
494.01 -160.798 -1165.17 72 83 62
144.014 313.543 -1164.23 124 174 170
135.572 248.233 -1163.79 115 177 178
633.295 444.119 -1153.55 35 43 29
353.721 148.618 -1130.64 35 45 28
419.059 493.605 -1125.14 49 52 47
658.26 293.445 -1078.09 14 24 12
717.173 -28.0882 -1109.05 62 73 72
-20.5515 -15.936 -1174.07 183 234 232
733.007 341.439 -943.717 51 57 41
543.423 519.041 -1157.89 64 67 54
588.332 579.312 -1172.22 78 85 66
918.009 513.851 -1164.94 156 194 205
1063.55 508.592 -1160.22 176 229 230
369.775 643.087 -1174.29 144 150 131
498.461 478.695 -1168.45 35 42 23
537.655 428.749 -1149.1 37 42 25
728.817 63.889 -965.285 54 56 43
503.348 544.858 -1160.11 59 61 44
203.794 43.5573 -1170.4 54 62 47
328.487 268.998 -1136.03 42 47 29
214.232 563.228 -1179.21 102 151 152
1034.06 508.562 -1163.37 189 245 240
651.552 299.185 -978.076 24 37 34
519.28 649.838 -1174.1 119 113 88
159.526 272.874 -1147.23 121 159 153
83.0417 318.277 -1174.91 124 186 186
408.868 508.826 -1115.18 46 56 37
448.327 -66.668 -1130.41 55 65 51
803.805 348.372 -1130.38 107 115 103
68.7637 389.368 -1175.46 123 188 189
984.615 -6.56288 -1163.81 185 236 240
800.314 167.97 -1163.46 138 195 197
458.243 529.431 -1147.52 65 70 48
1013.31 563.372 -1162.33 206 236 242
358.106 278.912 -1147.1 44 55 33
198.587 223.679 -1143.93 47 54 35
394.03 44.0869 -1141.33 42 52 36
643.142 298.947 -994.342 36 37 29
1023.96 -31.0921 -1159.93 182 235 230
478.34 98.6274 -1073.55 45 58 39
888.256 28.7938 -1164.02 184 234 234
474.416 183.048 -1100.94 33 38 24
618.147 243.918 -1005.19 44 51 37
783.387 523.655 -1166.75 156 215 216
398.401 364.432 -1118.27 49 53 33
338.714 67.9505 -1144.14 44 52 37
447.692 463.791 -1159.46 39 44 28
232.232 393.624 -1083.23 76 80 52
307.707 154.229 -1120.96 44 55 39
269.642 582.886 -1173.38 58 78 61
648.89 314.223 -1112.73 32 26 13
83.8872 278.05 -1174.61 139 197 201
508.556 148.229 -1080.05 35 43 28
1078.85 522.597 -1165.94 187 242 235
93.8569 528.767 -1179.58 137 191 198
58.9646 393.258 -1178.44 133 198 202
58.4246 454.495 -1176.75 155 196 202
997.618 3.49698 -1160.89 183 234 235
129.195 178.538 -1173.84 128 187 186
473.718 -51.5736 -1130.02 53 58 45
81.5107 139.324 -1172.09 125 192 195
898.781 534.218 -1165.47 184 221 230
214.271 523.301 -1179.91 99 160 165
259.492 452.637 -1064.35 90 137 131
943.583 -97.2817 -1160.34 200 255 245
247.765 313.556 -1118.34 56 67 48
992.997 -79.2886 -1157.4 187 250 249
1033.99 143.499 -1164.65 183 228 226
353.864 -5.92464 -1163.98 43 54 38
383.866 88.1539 -1123.8 38 43 27
539.194 298.877 -1091.05 40 48 30
864.052 173.863 -1168.13 143 190 185
768.345 -91.4783 -1165.8 166 215 216
693.26 208.537 -884.768 93 119 110
670.249 190.153 -915.887 70 97 92
264.657 248.631 -1124.17 33 43 28
758.353 74.4837 -1165.2 144 185 176
443.008 144.239 -1099.11 29 39 25
593.835 237.955 -1063.32 23 20 9
688.12 -6.67111 -1123.66 56 72 60
144.814 203.354 -1164.69 142 183 182
259.392 637.988 -1179.12 156 175 173
383.779 388.056 -1104.51 46 56 30
478.797 238.28 -1115.33 35 41 27
452.908 562.113 -1138.18 76 76 52
963.697 583.775 -1165.32 202 234 244
502.715 253.771 -1106.29 41 49 32
599.707 243.906 -1035.18 38 38 27
229.968 -132.108 -1174.75 117 193 190
278.267 454.532 -1063.03 63 84 63
967.51 138.104 -1161.66 187 231 231
577.956 113.466 -1078.97 40 52 37
1108.74 484.284 -1163.07 185 245 238
242.84 -141.699 -1171.64 184 220 218
404.394 -105.7 -1140.92 61 81 66
697.725 313.12 -1122.32 23 32 19
798.903 -99.9155 -1162.91 116 153 152
363.439 314.336 -1126.17 44 49 30
568.718 469.118 -1153.96 47 44 23
883.252 -149.35 -1159.18 50 85 58
155.226 238.467 -1149.99 102 176 173
633.698 337.132 -1125.35 40 38 22
148.198 148.766 -1170.47 121 178 180
507.974 507.954 -1159.14 40 45 33
697.523 472.374 -1162.13 54 57 43
488.191 124.675 -1079.49 41 53 42
128.82 -86.955 -1174.34 165 235 238
398.089 -119.432 -1145.09 34 49 31
293.794 59.0485 -1146.76 45 49 35
624.883 228.298 -991.547 37 45 31
939.405 258.92 -1167.68 154 205 203
249.003 573.639 -1175.74 124 147 144
988.22 257.584 -1160.21 196 238 242
375.214 429.056 -1096.59 48 62 42
258.878 -125.949 -1170.63 170 212 209
884.62 309.007 -1166.19 191 227 227
323.162 483.837 -1063.04 61 70 55
293.888 -50.2995 -1150.69 68 84 58
263.669 -41.1051 -1160.51 123 149 140
343.536 409.033 -1073.9 49 58 44
392.524 14.1309 -1157.55 52 57 39
313.799 637.846 -1175.59 145 161 154
948.711 518.542 -1165.24 187 226 230
498.405 359.137 -1110.15 38 39 23
193.15 -40.7803 -1171.79 164 211 211
133.029 268.843 -1176.87 139 190 188
1088.84 343.232 -1164.05 192 244 240
968.821 13.3457 -1162.91 186 245 240
808.543 -26.9082 -1166.3 180 225 223
83.3716 369.071 -1176.34 138 195 196
618.031 278.134 -1100.4 27 30 16
404.878 202.282 -1144.81 42 46 28
288.624 63.4254 -1145.43 46 55 40
583.224 193.384 -1044.37 45 58 43
383.962 438.283 -1099.78 46 54 35
353.136 499.559 -1075.24 53 65 44
139.126 323.713 -1175.35 130 172 164
508.254 399.895 -1142.81 29 35 19
753.682 368.426 -1150.76 44 61 52
248.781 378.492 -1085.25 52 80 47
928.847 539.511 -1165.31 186 216 223
633.605 188.486 -989.955 39 48 34
1043.87 -111.241 -1159.17 183 236 224
37.716 78.057 -1176.41 132 195 202
498.801 13.0042 -1118.28 47 60 43
918.424 524.182 -1166.35 190 226 237
983.469 233.511 -1164.44 183 240 243
921.113 -49.863 -1163.5 191 252 251
572.743 482.855 -1154.82 45 50 35
659.075 -64.4831 -1150.83 64 96 84
469.601 604.463 -1176 84 73 62
684.67 4.25441 -1116.21 61 69 57
620.095 214.989 -1002.31 43 48 34
568.84 137.86 -1074.26 41 50 36
148.096 544.323 -1179.9 129 189 191
504.038 217.907 -1100.76 33 39 22
789.271 244.497 -1165.52 121 164 160
888.829 -175.643 -1161.95 200 255 245
598.285 229.587 -1074.98 22 28 16
853.619 278.024 -1166.77 141 191 190
458.915 45.2483 -1106.32 42 52 37
360.038 363.405 -1098.55 53 55 38
219.435 613.082 -1176.73 114 130 118
264.162 573.536 -1176.92 150 179 177
688.383 493.61 -1164.86 40 54 40
63.247 358.251 -1173.66 126 195 198
668.226 589.546 -1171.34 74 71 79
849.469 638.717 -1165.04 218 236 231
613.219 399.082 -1141.58 37 45 28
113.275 258.459 -1175.44 125 187 189
870.142 -76.2188 -1162.46 193 252 245
803.289 513.579 -1169.57 76 85 96
716.852 130.873 -911.595 67 89 90
608.392 418.102 -1144.61 38 43 29
963.348 528.66 -1165.25 193 242 239
363.935 -181.352 -1169.86 73 82 63
994.235 438.228 -1165.46 189 245 237
173.038 299.755 -1140.62 77 112 103
214.538 -56.035 -1172.71 160 205 204
418.889 -66.1308 -1134.86 52 62 48
389.459 537.754 -1088.23 43 65 50
981.374 -79.4129 -1157.47 187 250 249
827.8 -100.535 -1162.16 65 87 82
3.91435 73.132 -1178.84 196 221 232
698.393 -60.2863 -1155.65 130 167 161
94.0686 -66.6577 -1174.15 166 215 222
374.498 623.175 -1173.61 138 148 132
577.896 209.128 -1043.26 32 44 30
580.043 286.99 -1103.14 49 55 38
617.577 187.743 -1019.36 54 75 58
1068.68 183.13 -1163.76 182 223 219
28.5056 -25.867 -1175.6 178 225 229
-17.4111 -32.0823 -1180.31 174 236 244
908.816 73.5566 -1165.25 185 230 227
-7.44114 264.053 -1178.75 126 198 206
1062.53 183.299 -1162.03 187 226 221
358.729 593.891 -1176.4 91 101 86
574.449 198.35 -1070.17 20 22 12
99.2062 43.9327 -1176.63 140 203 211
848.919 372.992 -1164.32 174 204 203
118.941 348.215 -1174.09 122 187 184
568.867 235.701 -1111.46 26 32 17
-6.71508 279.718 -1178.06 139 197 202
488.752 438.244 -1164.57 41 40 16
123.28 303.547 -1175.45 132 190 194
169.059 204.328 -1151.68 66 81 61
143.741 -184.457 -1172.3 163 221 230
849.459 278.835 -1166.97 134 188 187
8.24116 518.35 -1179.42 141 199 213
738.699 404.339 -1162.35 46 48 36
998.126 638.337 -1167.64 199 232 245
598.785 574.415 -1171.14 66 65 54
243.964 38.3521 -1159.88 43 53 38
899.321 318.841 -1162.95 146 198 196
635.839 117.5 -996.76 55 67 54
1048.98 -64.8953 -1160.27 111 148 138
278.302 428.476 -1069.08 49 68 42
248.937 184.047 -1125.36 40 52 36
647.048 263.307 -950.025 41 56 42
964.592 408.062 -1162.34 175 216 217
627.475 172.725 -1019.57 46 49 35
159.656 527.199 -1174.25 76 78 74
72.717 428.83 -1176 125 193 194
148.676 324.649 -1175.62 136 174 170
513.349 473.018 -1165.97 47 45 36
653.249 72.5711 -1074.93 42 49 35
58.8395 260.165 -1177.11 126 194 202
918.535 407.99 -1159.57 143 200 206
723.895 529.588 -1170.41 181 218 222
388.007 -35.8898 -1149.71 50 54 40
528.649 62.9097 -1083.89 47 60 42
518.352 473.845 -1164.86 47 48 35
1078.7 449.493 -1161 184 240 233
482.284 233.799 -1112.83 38 43 30
-6.84727 24.0042 -1177.48 162 226 230
783.33 484.125 -1168.34 179 243 244
633.719 329.418 -1117.71 34 39 23
1018.73 118.532 -1161.06 189 232 236
884.055 118.269 -1164.84 176 222 223
479.04 83.2404 -1074.02 48 64 46
769.279 188.66 -1167.78 131 177 170
113.756 -10.7338 -1174.13 150 207 213
1048.67 301.814 -1162.42 183 237 248
413.803 48.5711 -1130.82 37 46 30
119.453 398.249 -1172.48 124 180 180
377.986 289.856 -1141.63 37 43 26
397.927 13.8551 -1154.1 52 57 42
938.311 333.654 -1165.27 193 244 243
874.005 483.62 -1165.76 178 230 228
713.898 -11.4048 -1100.14 73 87 73
638.441 -76.3389 -1160.14 56 69 56
13.1685 474.506 -1179.03 146 202 213
88.2817 9.40574 -1175.55 146 203 208
958.633 564.285 -1165.91 204 235 243
458.054 553.636 -1144.91 56 65 42
253.973 249.375 -1130.39 40 46 30
523.08 88.7206 -1074.92 46 61 43
874.165 544.008 -1166.15 201 228 228
1058.4 228.807 -1160.11 179 223 231
638.801 389.008 -1150.87 34 41 27
393.266 428.509 -1105.59 52 53 30
454.353 353.841 -1120.98 43 46 29
63.9112 652.058 -1179.63 185 197 206
68.6657 553.087 -1177.92 163 195 199
1013.61 -96.135 -1158.46 175 227 214
269.706 178.4 -1120.72 36 43 27
113.276 129.845 -1177.76 133 192 194
668.231 -60.7948 -1150.44 79 101 87
1044.73 202.592 -1160.55 171 219 221
1028.63 -101.736 -1161.15 185 238 226
889.026 509.406 -1165.64 188 234 232
711.567 127.654 -919.121 46 50 38
149.051 -36.0886 -1174.19 168 215 215
703.694 23.7335 -1075.07 56 66 54
79.5843 -101.427 -1178.16 143 213 225
87.9623 64.2581 -1172.02 155 226 239
430.463 518.193 -1132.33 54 59 39
543.646 219.58 -1100.23 39 42 27
707.511 172.948 -889.88 65 69 60
388.541 344.342 -1117.45 36 49 30
743.475 428.772 -1165.3 57 66 48
293.01 564.226 -1176.48 69 85 80
522.934 289.671 -1095.28 45 57 40
1038.53 143.399 -1164.91 181 227 225
243.425 74.2458 -1157.82 46 58 41
1139.07 23.0511 -1161.49 239 255 255
225.307 203.604 -1135.84 39 45 30
1118.18 133.823 -1164.64 193 232 232
453.672 44.3096 -1110.18 39 50 35
498.609 503.626 -1159.62 37 45 24
808.789 83.0647 -1163.92 150 192 185
398.186 283.185 -1144.59 35 45 29
717.29 134.429 -910.305 89 110 106
789.35 339.44 -1119.89 56 49 38
623.926 383.009 -1144.38 32 41 24
398.547 243.618 -1153.53 31 40 23
303.108 174.847 -1116.11 61 68 47
459.794 312.755 -1111.54 39 42 26
818.924 33.3944 -1163.22 159 199 192
1003.66 438.809 -1165.21 189 247 239
503.579 -107.033 -1140.73 67 75 58
133.719 574.3 -1176.44 153 190 195
504.584 259.459 -1106.41 36 45 27
418.491 409.086 -1127.9 51 45 34
93.825 352.962 -1175.88 143 195 196
147.917 614.346 -1171.85 132 182 194
212.804 528.501 -1177.37 98 166 181
609.41 254.018 -1063.69 21 22 5
1043.35 44.4868 -1163.55 167 200 192
793.812 389.238 -1154.02 17 41 44
1102.71 598.702 -1166.57 199 232 245
428.114 -16.0365 -1139.08 40 47 32
98.6929 627.656 -1176.46 162 192 193
725.401 23.9055 -1040.3 74 89 81
613.751 259.233 -1020.83 57 80 68
420.232 103.382 -1104.92 30 41 22
893.648 -152.203 -1164.67 200 255 245
918.998 107.628 -1162.04 191 240 245
282.811 554.153 -1175.27 73 94 72
458.912 352.987 -1119.61 43 47 30
2.89008 159.287 -1175.64 150 204 210
1128.62 63.4475 -1160.6 155 179 176
686.763 46.4504 -1058.38 51 53 42
64.1178 647.705 -1179.48 180 195 205
299.114 57.519 -1149.45 47 55 37
928.326 -155.237 -1164.52 50 85 58
213.168 459.524 -1170.11 152 169 157
953.57 218.294 -1164.13 185 231 225
1103.07 -141.952 -1156.47 50 85 58
1123.18 -135.77 -1158.03 50 85 58
118.512 3.76327 -1174.46 153 204 208
93.8529 493.053 -1174.71 98 186 197
403.279 -17.1074 -1150.52 37 43 28
813.602 463.537 -1170.79 195 227 227
53.0674 403.934 -1175.71 139 201 203
923.426 594.799 -1165.96 199 232 245
113.194 199.05 -1174.92 127 184 184
253.795 433.416 -1063.91 48 76 43
638.637 568.854 -1170.07 100 109 92
493.374 -11.4618 -1124.73 50 58 43
914.013 302.797 -1162.28 167 214 211
859.654 118.014 -1165.8 152 198 193
557.194 108.127 -1078.1 44 59 42
574.177 42.5788 -1118.66 41 53 37
508.649 303.124 -1096.14 45 52 34
778.711 -146.005 -1162.45 172 235 231
353.756 428.284 -1079.95 53 58 45
726.995 329.697 -918.765 35 52 36
238.461 -131.07 -1169.2 176 218 216
688.44 59.9613 -1025.08 56 62 45
794.232 344.161 -1122.99 92 101 87
888.855 184.164 -1166.07 154 194 194
543.334 494.172 -1161.11 53 55 38
1028.75 249.045 -1165.87 192 239 237
913.93 368.788 -1164.55 192 239 244
429.043 633.023 -1175.4 74 71 53
938.024 540.772 -1166.38 213 220 212
894.996 459.881 -1171.78 216 244 240
438.907 162.212 -1110.72 26 34 20
138.125 -1.21778 -1175.7 154 204 211
615.145 339.431 -1115.22 39 39 22
268.641 528.99 -1178.4 73 88 76
693.566 93.9151 -964.724 77 91 82
743.646 479.031 -1168.23 174 220 224
498.351 263.04 -1108.46 40 44 28
928.687 498.651 -1169.18 187 242 246
658.179 564.31 -1173.13 61 55 54
798.761 322.462 -1058.75 131 161 141
1004.54 222.876 -1164.78 185 223 223
799.041 268.271 -1167.39 131 177 174
943.426 508.353 -1169.85 187 246 239
663.228 223.534 -915.121 52 70 56
913.341 618.973 -1164.63 211 239 240
1154.4 -31.7344 -1163.21 239 255 255
416.053 58.9264 -1122.35 33 44 32
668.929 253.192 -905.563 59 56 37
695.309 312.625 -903.518 88 92 90
534.132 627.493 -1172.09 133 162 143
713.594 560.063 -1168.71 163 215 229
1073.8 219.092 -1161.25 184 227 224
508.57 299.516 -1096.82 45 50 35
608.848 563.256 -1170.07 69 77 65
453.221 203.574 -1119.29 34 39 26
90.5559 588.662 -1178.44 105 187 190
504.449 -18.2891 -1133.09 51 59 48
1128.73 507.795 -1160.5 192 255 253
143.77 43.2848 -1175.78 144 200 205
938.832 342.757 -1160.92 165 212 210
759.602 302.814 -1168.56 102 151 152
658.317 148.353 -954.754 83 94 79
463.721 117.863 -1081.12 41 51 36
214.655 618.77 -1176.68 121 138 127
63.307 349.093 -1177.97 116 193 192
577.007 -96.822 -1157.12 64 73 57
994.335 428.393 -1165.86 180 238 231
763.474 -122.103 -1166.14 153 201 203
154.224 563.428 -1180.7 156 190 194
368.827 223.797 -1158.58 32 37 19
854.709 203.47 -1164.51 142 185 182
943.514 413.511 -1163.61 187 246 238
813.876 48.5895 -1164.71 149 196 192
1034.3 48.4608 -1160.86 202 236 235
958.76 233.964 -1164.09 187 246 247
993.083 263.036 -1159.87 188 236 244
423.564 333.886 -1126.91 45 48 29
683.394 152.897 -924.527 82 107 94
953.927 -115.934 -1163.46 163 212 198
959.103 498.421 -1165.11 189 244 237
428.271 38.579 -1129.43 37 50 34
473.549 328.689 -1104.83 40 44 24
1093.44 378.393 -1161.99 74 97 84
336.935 202.912 -1136.93 31 43 26
89.0553 558.482 -1176.98 122 188 191
498.079 449.647 -1163.42 35 42 25
373.337 103.743 -1125.54 37 44 29
324.626 543.081 -1179.67 138 151 134
53.6153 59.1118 -1177.86 143 202 211
84.9178 468.161 -1173.64 110 184 192
49.1209 -21.3671 -1174.39 161 211 213
439.318 468.065 -1149.71 52 53 40
423.134 -0.426517 -1143.38 35 45 31
459.994 559.664 -1150.5 57 64 39
984.425 298.457 -1165.52 164 203 200
453.598 144.237 -1094.39 31 37 24
633.512 -71.5551 -1160.33 52 69 53
1129.05 623.961 -1170.28 199 232 245
662.929 408.157 -1160.83 48 44 25
198.14 -6.41043 -1171.16 159 201 200
973.815 388.944 -1165.71 180 236 228
633.921 318.299 -1104.97 35 40 21
389.142 388.19 -1108.99 47 51 34
74.8237 648.855 -1177.33 178 194 192
677.363 36.7501 -1093.76 47 51 37
559.094 93.5994 -1083.17 45 59 41
388.347 288.786 -1141.71 37 49 31
698.584 388.649 -1163.72 37 43 33
468.144 143.345 -1090.34 31 37 21
418.797 514.429 -1122.02 51 53 45
484.491 409.537 -1153.55 22 29 11
894.775 258.482 -1165.65 151 196 193
573.78 329.049 -1089.51 42 46 27
643.728 523.874 -1164.6 82 93 68
118.507 -176.565 -1173.78 147 225 227
1004.73 308.24 -1164.01 190 236 235
494.463 514.496 -1161.17 38 47 31
733.788 414.115 -1162.1 45 48 36
1098.67 168.452 -1160.36 170 213 207
943.011 559.175 -1164.88 201 233 245
118.118 8.49737 -1174.95 154 208 208
373.921 423.365 -1090.87 50 59 35
703.486 78.0193 -974.854 61 72 66
654.128 9.32698 -1135.13 43 57 44
988.329 333.326 -1160.44 184 240 241
98.3321 253.557 -1175.29 127 188 188
1008.67 231.924 -1162.21 185 232 243
639.137 228.898 -969.924 41 50 36
703.77 469.099 -1164.43 50 59 38
944.099 448.855 -1166.47 184 244 237
218.099 459.443 -1174.19 102 157 154
258.146 272.595 -1129.11 37 47 32
744.096 208.428 -1167.77 122 163 156
908.496 383.347 -1168.91 158 221 232
348.573 -95.5068 -1146.94 42 61 43
718.949 373.77 -1160.32 36 43 32
1085.4 504.346 -1159.37 161 207 209
602.437 343.49 -1106.05 38 42 26
558.967 318.121 -1084.1 44 57 39
474.577 453.484 -1173.3 30 40 22
618.538 -46.6723 -1155.43 58 67 48
558.054 63.3442 -1094.63 49 58 38
624.149 153.339 -1039.18 36 38 26
50.3547 -56.8656 -1178.76 160 213 213
647.122 206.995 -958.725 41 48 35
282.866 118.934 -1125.28 43 53 38
693.369 293.658 -890.308 54 70 68
702.719 201.78 -886.56 52 72 52
393.403 -56.994 -1140.81 52 58 45
683.463 -16.5315 -1135.25 56 71 61
133.391 622.421 -1167.13 126 184 194
858.64 -36.6709 -1166.31 178 232 234
613.616 529.286 -1159.44 75 68 51
993.646 547.843 -1165.69 203 233 238
178.563 -151.21 -1173.79 166 217 222
879.069 358.544 -1168.31 182 218 209
431.644 188.562 -1128.04 27 34 21
459.568 529.433 -1151.87 49 61 32
553.815 -116.184 -1161.01 65 71 56
707.519 17.8601 -1078.42 56 66 54
628.074 597.729 -1169.83 108 114 99
834.25 619.078 -1169.89 205 241 248
723.41 -126.613 -1163.55 164 207 209
1084.61 194.013 -1160.11 176 217 215
533.832 513.374 -1159.41 46 45 25
1078.57 188.567 -1165.36 182 223 221
278.078 603.208 -1175.77 82 112 102
754.992 228.138 -1166.19 121 170 163
248.085 78.665 -1154.45 47 56 44
620.496 282.901 -1010.69 37 37 21
683.762 148.051 -932.93 52 51 39
427.995 323.754 -1122.3 41 51 32
362.515 -65.981 -1141.93 57 67 54
759.282 -84.1187 -1162.36 182 230 237
794.434 497.902 -1165.25 180 239 238
-7.02332 87.9981 -1175.63 154 217 233
488.091 543.732 -1156.53 47 58 32
1117.75 433.491 -1162.01 185 246 236
792.589 328.213 -1032.38 66 79 69
623.515 -96.0062 -1164.29 174 220 213
675.464 242.645 -889.514 80 98 95
829.025 493.517 -1165.39 181 232 236
983.847 243.356 -1165.79 199 247 245
73.6338 218.708 -1175.63 131 186 187
662.152 292.753 -934.167 53 42 22
38.123 284.033 -1175.57 122 193 198
482.523 289.366 -1108.83 42 53 35
983.125 574.314 -1165.05 202 234 244
353.716 263.57 -1153.57 36 42 28
194.692 563.472 -1177.93 136 157 154
733.492 -161.773 -1164.53 181 221 219
1049.81 21.9036 -1156.53 183 228 223
864.891 203.537 -1165.12 141 191 188
1063.16 594.397 -1164.02 199 232 245
105.745 442.421 -1177.34 134 187 189
444.592 592.937 -1171.1 71 68 41
163.032 -165.915 -1173.31 165 222 215
-7.00986 363.774 -1177.78 142 211 224
918.609 113.661 -1164.79 189 230 234
691.997 143.08 -923.714 86 106 99
948.984 297.606 -1163.4 177 226 221
269.899 325.625 -1102.49 43 53 41
193.981 344.668 -1111.32 77 87 61
268.355 344.218 -1093.97 49 58 37
1089.4 448.753 -1164.14 189 248 240
635.149 153.612 -1019.78 27 35 22
692.975 213.398 -884.602 92 114 107
193.978 363.621 -1104.63 103 144 134
772.759 -20.5376 -1168.25 182 216 213
612.08 172.362 -1043.73 32 34 21
1083.73 13.4728 -1161.05 134 159 155
745.773 346.251 -970.036 28 34 31
402.749 449.173 -1116.06 46 54 38
513.64 464.029 -1164.86 40 39 32
667.263 172.821 -929.074 75 91 83
548.563 463.927 -1156.4 57 59 39
494.081 73.7314 -1074.69 63 74 52
333.197 343.577 -1095.14 62 73 50
388.83 408.069 -1099.88 49 52 35
99.0984 632.396 -1177.75 166 193 196
903.621 239.143 -1168.06 184 226 221
958.77 -126.976 -1165.14 183 236 224
894.184 333.127 -1164.23 187 220 208
315.569 156.922 -1128.18 34 42 27
79.0927 603.463 -1178.47 159 194 198
469.044 373.374 -1125.6 38 41 25
599.489 243.27 -1043.77 24 26 12
553.849 -166.861 -1165.35 65 71 56
369.306 -136.512 -1167.33 72 90 78
598.508 474.079 -1151.22 41 45 39
858.416 223.956 -1165.98 144 188 182
632.457 178.44 -995.011 35 42 32
1036.88 587.721 -1165.99 219 244 237
429.558 328.468 -1129.52 26 33 17
998.619 174.065 -1161.92 181 227 225
74.0064 453.368 -1180.96 144 199 195
68.0631 458.656 -1179.81 139 198 199
719.988 338.137 -1008.41 29 40 21
309.616 608.162 -1174.17 59 77 56
522.461 244.847 -1102.95 40 48 30
1047.93 494.009 -1164.48 188 243 237
728.343 473.958 -1168.58 167 217 213
666.203 -17.7772 -1148.55 89 102 85
118.453 434.104 -1177.57 132 188 187
38.9948 354.814 -1176.29 127 192 197
454.48 104.576 -1081.26 36 44 28
455.252 187.971 -1111.45 31 35 21
498.283 278.535 -1104.21 40 47 32
564.248 349.715 -1083.41 42 52 34
578.201 208.23 -1085.55 22 24 12
268.216 -1.40168 -1158.29 51 66 54
858.808 624.341 -1165.64 202 234 244
169.42 168.338 -1156.68 64 75 55
159.053 627.893 -1177.64 157 190 193
668.304 314.19 -1114.99 28 28 17
918.405 628.455 -1161.81 204 235 243
1063.19 603.721 -1161.14 199 232 245
747.866 288.587 -1167.28 101 146 142
258.733 122.941 -1128.62 40 47 29
423.444 -10.6759 -1143.36 47 55 43
468.891 37.7087 -1108.85 44 54 38
1038.18 133.777 -1162.73 183 227 223
-21.7709 144.123 -1178.68 140 202 211
590.584 232.125 -1039.39 36 33 20
658.484 -91.8845 -1163.99 150 190 191
484.184 172.22 -1096.3 29 36 20
14.0122 234.103 -1176.95 140 196 199
693.449 563.647 -1169.92 133 184 169
962.287 479.484 -1171.46 161 207 209
498.19 268.596 -1104.71 42 46 30
84.2987 87.7181 -1178.24 158 206 210
742.455 458.958 -1166.94 36 40 37
808.258 522.446 -1168.3 117 149 144
993.106 -156.668 -1157.03 200 255 245
563.507 144.292 -1074.94 49 61 43
468.42 -46.5809 -1129.54 51 62 43
829.129 48.34 -1163.21 157 202 196
863.006 423.908 -1167.01 168 227 225
708.568 138.65 -909.907 54 64 53
578.496 -47.3119 -1151.57 54 66 45
1019.3 133.337 -1163.19 185 227 227
1088.13 389.161 -1160.75 159 204 197
563.519 385.045 -1124.34 34 38 26
1024.74 329.115 -1160.98 162 229 238
635.068 270.202 -1071.99 24 21 10
628.511 453.856 -1153.8 40 42 21
392.308 -35.2795 -1149.42 47 49 36
617.998 433.036 -1146.9 32 38 23
538.076 328.556 -1081.17 48 52 37
403.443 393.215 -1116.29 48 50 36
1044.78 452.435 -1162.41 188 241 231
1119.19 28.3624 -1160.21 154 171 164
844.471 532.734 -1167.01 154 197 199
793.531 -46.3357 -1166.74 177 219 216
548.587 248.51 -1104.87 34 40 25
259.717 298.282 -1120.01 47 51 33
190.268 -73.9688 -1172.14 165 206 201
923.762 87.2829 -1163.71 190 237 230
269.235 -116.88 -1173.99 56 79 70
706.722 138.272 -914.203 70 93 82
618.602 158.437 -1049.99 32 35 25
703.892 209.875 -882.875 106 125 106
543.73 -90.7156 -1150.46 40 51 32
873.975 98.0591 -1166.34 180 234 241
343.331 353.51 -1089.36 50 59 43
248.434 504.109 -1172.14 98 99 87
168.036 329.042 -1163.31 97 153 153
528.578 522.557 -1160.05 48 52 31
713.423 444.549 -1162.1 45 55 37
892.589 48.1783 -1167.99 189 241 245
1003.2 265.112 -1162.24 186 234 242
252.959 504.718 -1172.44 81 102 85
698.525 78.8211 -979.936 63 79 71
942.434 554.316 -1164.71 200 233 244
1023.62 273.168 -1165.38 182 236 239
663.228 488.539 -1159.16 46 46 33
758.77 -60.6503 -1161.92 82 108 106
193.129 59.58 -1166.75 90 120 110
418.918 -81.2492 -1135.04 57 69 56
1093.12 59.3188 -1160.03 113 145 136
424.079 528.723 -1124.84 52 51 35
463.185 403.09 -1141.13 39 41 30
539.268 7.55678 -1128.83 49 63 45
139.214 278.644 -1166.07 167 189 183
848.717 53.8429 -1164.3 179 225 224
654.789 123.922 -971.184 93 107 91
684.43 643.254 -1169.34 192 203 207
773.928 418.034 -1161.08 155 185 176
-15.5961 433.054 -1180.24 140 200 216
498.046 198.972 -1098.74 36 43 27
89.5921 568.074 -1178.49 143 190 193
484.344 218.952 -1109.19 32 43 27
819.572 248.424 -1166.39 150 185 179
874.612 283.349 -1164.3 144 192 188
1104.17 313.174 -1161.74 175 225 229
973.688 -136.345 -1159.95 157 206 192
803.394 67.8851 -1166.07 154 195 188
912.665 418.654 -1170.13 182 241 232
599.884 314.65 -1098.2 34 38 21
868.691 433.45 -1164.22 228 245 226
418.426 419.132 -1125.44 47 50 30
428.486 469.583 -1135.72 58 52 37
378.909 113.633 -1121.44 45 46 25
658.489 73.6976 -1034.8 49 56 43
753.258 -62.072 -1164.34 162 223 223
543.839 173.203 -1081.33 33 39 26
899.675 262.913 -1166.01 151 197 191
189.536 488.178 -1173.33 164 184 179
344.562 598.381 -1176.13 107 126 115
59.1904 629.43 -1176.21 110 184 195
642.005 118.087 -989.72 51 63 50
703.635 603.995 -1168.43 170 219 225
68.7923 103.604 -1174.73 130 191 194
598.796 48.0491 -1119.48 43 52 39
568.747 198.905 -1078.45 40 34 21
483.132 420.064 -1155.9 34 41 14
613.898 94.3174 -1080.98 41 49 36
188.904 58.7413 -1171.48 129 170 162
302.298 203.95 -1127.04 39 47 28
698.508 -71.6751 -1160.35 44 64 51
759.3 322.642 -1104.14 27 26 14
238.525 228.69 -1135.01 38 46 29
458.929 649.853 -1172.76 85 84 63
1043.93 -105.743 -1158.8 163 212 198
365.054 210.57 -1152.69 28 34 17
913.571 458.409 -1165.59 144 192 201
973.013 614.498 -1162.29 202 234 244
478.234 282.884 -1114.28 41 56 42
666.238 -46.7245 -1152.85 65 82 68
423.099 -70.6855 -1132.15 45 55 41
323.294 83.4546 -1136.07 41 48 31
219.772 563.078 -1180.71 103 163 160
453.572 213.686 -1120.96 32 41 25
604.485 354.052 -1117.97 31 33 19
729.386 628.031 -1167.37 195 214 214
1154.86 486.45 -1176.86 189 247 238
577.771 214.707 -1073.67 67 69 54
1098.41 389.823 -1161.22 175 229 221
538.448 114.329 -1072.02 54 67 47
134.105 -27.6242 -1171.76 160 208 211
728.77 604.132 -1166.55 177 233 239
713.458 378.663 -1162.06 38 41 32
974.315 593.034 -1165.59 219 244 237
978.357 272.691 -1164.58 149 192 188
807.901 374.483 -1150.19 30 31 26
679.734 618.715 -1169.19 191 206 209
403.942 317.435 -1125.25 55 52 36
928.573 -99.482 -1163.22 50 85 58
34.4169 223.594 -1177.45 125 192 194
488.163 173.774 -1095.34 34 41 27
1019.41 67.6532 -1161.51 184 232 236
138.446 -146.77 -1176.14 123 206 209
636.19 329.082 -1110.42 38 42 21
293.131 543.891 -1175.08 95 109 101
973.14 463.729 -1161.36 183 238 233
153.733 163.362 -1165.13 111 167 164
388.133 259.126 -1159.06 38 50 32
912.853 433.942 -1168.18 197 246 247
129.027 613.711 -1169.94 132 177 185
843.752 284.989 -1167.11 136 188 186
294.829 -65.7889 -1151.36 48 66 52
1113.64 318.533 -1161.52 139 184 181
938.908 198.38 -1165.8 187 230 226
614.88 114.86 -1066.15 40 43 29
168.436 513.577 -1176.4 93 124 121
443.372 -85.9602 -1129.66 42 52 36
703.612 363.526 -1160.66 28 37 25
1033.48 3.17428 -1160.08 182 231 228
699.033 203.467 -888.311 56 75 61
628.382 268.017 -1062.48 21 26 13
622.25 112.262 -1064.17 34 40 25
923.577 253.629 -1166.43 181 229 229
283.372 52.6937 -1154.38 41 52 34
893.878 28.6633 -1164.52 183 231 233
884.459 643.577 -1166.06 219 244 237
317.632 160.297 -1126.54 41 47 31
79.3364 552.954 -1175.97 146 188 196
440.302 257.495 -1130.82 33 36 22
318.925 398.93 -1066.63 61 70 48
1083.41 463.738 -1160.97 185 245 239
958.957 -6.96088 -1161.22 192 246 249
153.613 138.676 -1169.51 118 176 177
799.377 203.558 -1169.36 145 185 179
738.981 253.111 -1168.53 109 161 160
428.396 347.771 -1121.88 47 48 30
518.54 414.45 -1146.44 40 40 27
1118.88 548.78 -1155.97 199 232 245
1013.34 453.164 -1162.29 185 242 236
338.996 214.54 -1143.71 36 43 25
44.0796 227.7 -1176.89 115 187 193
643.836 238.513 -965.386 41 40 27
1043.33 28.7497 -1159.73 186 226 227
249.488 638.39 -1176.55 162 178 175
872.656 388.471 -1162.35 180 252 252
764.127 643.804 -1165.93 200 226 226
458.603 173.341 -1105.77 33 37 20
53.5399 98.6676 -1174.74 147 197 200
523.522 449.009 -1157.61 42 45 25
591.81 498.527 -1152.2 47 41 26
43.3173 539.227 -1176.95 136 191 193
388.514 69.2392 -1131.15 35 44 29
598.969 -70.8154 -1156.86 61 72 57
358.867 -115.973 -1166.91 73 82 65
312.567 464.53 -1065.27 72 90 67
1034.38 368.44 -1166.72 183 232 232
217.949 544.062 -1179.91 113 163 159
383.113 143.482 -1130.46 31 37 24
328.658 -111.377 -1161.28 35 57 37
681.932 294.206 -902.864 56 75 71
217.437 503.735 -1179.74 108 159 155
113.464 459.331 -1179.45 138 192 189
908.799 252.616 -1168.7 192 230 216
948.745 -7.88931 -1163.01 187 243 244
933.52 408.782 -1169.53 188 252 247
453.956 49.5194 -1105.62 41 53 37
1034.46 43.4646 -1160.44 206 237 238
1123.28 -40.6898 -1160.18 102 105 104
478.232 148.418 -1089.54 34 40 27
733.534 573.658 -1167.01 179 234 228
1027.92 443.613 -1160.33 186 242 237
543.502 3.7118 -1130.42 54 64 46
723.284 324.589 -1133.76 36 48 44
1128.84 -6.41097 -1160.05 108 122 99
938.79 378.371 -1164.62 184 232 236
409.864 80.2478 -1116.94 31 41 27
684.082 338.57 -995.632 45 40 28
18.5157 19.2893 -1177.51 159 228 238
83.293 -31.1825 -1175.24 155 208 215
59.2263 -116.333 -1177.01 158 217 232
788.34 108.35 -1165.84 144 188 177
132.393 188.883 -1173.2 139 189 186
339.308 287.462 -1133.93 41 47 28
442.752 503.415 -1145.53 55 51 50
1003.78 484.359 -1165.81 191 244 243
698.119 298.292 -885.738 68 85 68
443.694 393.065 -1130.42 39 45 28
365.124 112.274 -1126.08 37 45 27
238.089 268.636 -1133.86 38 47 32
138.216 303.402 -1170.21 132 189 186
309.721 649.677 -1176.07 152 165 157
244.011 649.256 -1176.92 155 176 171
534.044 363.856 -1095.81 41 44 30
693.936 -1.43627 -1110.48 55 71 60
283.454 143.794 -1120.24 43 51 36
403.798 438.637 -1118.52 40 54 37
