ply
format ascii 1.0
comment pointcloud saved from Realsense Viewer
element vertex 2454
property float32 x
property float32 y
property float32 z
property uchar red
property uchar green
property uchar blue
end_header
18 23 13 
0.00814589 0.0849418 -0.583 
14 22 7 
0.0122087 0.0850875 -0.584 
20 25 11 
0.0162855 0.0852332 -0.585 
13 26 13 
0.0203761 0.0853789 -0.586 
12 25 12 
0.0244388 0.0853789 -0.586 
15 28 15 
0.0284529 0.0852332 -0.585 
19 29 15 
0.0324532 0.0850875 -0.584 
17 26 17 
0.0365021 0.0850875 -0.584 
18 26 13 
0.0405509 0.0850875 -0.584 
17 27 15 
0.0447526 0.0853789 -0.586 
18 26 11 
0.0488153 0.0853789 -0.586 
20 26 9 
0.0529683 0.0855246 -0.587 
19 27 12 
0.0571352 0.0856703 -0.588 
18 28 12 
0.0615241 0.0861074 -0.591 
18 28 14 
0.0659546 0.0865445 -0.594 
21 31 17 
0.0703088 0.0868359 -0.596 
63 69 50 
0.0745657 0.0869815 -0.597 
71 78 52 
0.0785729 0.0868359 -0.596 
34 44 17 
0.0824275 0.0865445 -0.594 
21 29 16 
0.0865457 0.0865445 -0.594 
20 29 11 
0.0905113 0.0863988 -0.593 
21 29 14 
0.094463 0.0862531 -0.592 
18 28 14 
0.0985673 0.0862531 -0.592 
18 28 14 
0.102498 0.0861074 -0.591 
20 30 14 
0.106776 0.0862531 -0.592 
18 29 10 
0.111068 0.0863988 -0.593 
20 30 18 
0.115373 0.0865445 -0.594 
19 27 12 
0.119693 0.0866902 -0.595 
20 25 11 
0.123818 0.0866902 -0.595 
23 32 14 
0.128373 0.0869815 -0.597 
57 60 44 
0.132956 0.0872729 -0.599 
46 55 35 
0.137567 0.0875643 -0.601 
109 129 114 
0.141969 0.0877101 -0.602 
103 138 126 
0.146143 0.0877101 -0.602 
107 142 134 
0.150316 0.0877101 -0.602 
107 144 135 
0.15449 0.0877101 -0.602 
107 144 135 
0.158664 0.0877101 -0.602 
106 143 132 
0.162567 0.0875643 -0.601 
107 144 135 
0.166456 0.0874186 -0.6 
105 144 135 
0.170616 0.0874186 -0.6 
104 143 134 
0.174485 0.0872729 -0.599 
105 143 139 
0.178638 0.0872729 -0.599 
109 145 139 
0.18279 0.0872729 -0.599 
107 144 135 
0.186631 0.0871273 -0.598 
101 143 133 
0.191096 0.0872729 -0.599 
106 143 134 
0.195249 0.0872729 -0.599 
107 144 135 
0.199402 0.0872729 -0.599 
104 142 136 
0.203895 0.0874186 -0.6 
106 144 140 
0.208054 0.0874186 -0.6 
101 142 137 
0.212568 0.0875643 -0.601 
107 148 145 
0.216735 0.0875643 -0.601 
97 138 131 
0.220534 0.0874186 -0.6 
108 142 137 
0.224694 0.0874186 -0.6 
112 142 134 
0.228854 0.0874186 -0.6 
106 136 128 
0.233013 0.0874186 -0.6 
110 142 135 
0.237173 0.0874186 -0.6 
109 139 133 
0.241735 0.0875643 -0.601 
115 150 142 
0.245902 0.0875643 -0.601 
108 145 136 
0.250069 0.0875643 -0.601 
111 153 143 
0.253812 0.0874186 -0.6 
107 145 139 
0.257972 0.0874186 -0.6 
106 144 138 
0.262132 0.0874186 -0.6 
102 140 134 
0.266736 0.0875643 -0.601 
107 147 147 
0.271353 0.0877101 -0.602 
107 145 143 
0.275527 0.0877101 -0.602 
109 147 143 
0.279236 0.0875643 -0.601 
107 148 145 
0.283403 0.0875643 -0.601 
108 148 148 
0.287569 0.0875643 -0.601 
104 147 143 
0.291736 0.0875643 -0.601 
116 147 143 
0.295903 0.0875643 -0.601 
135 169 164 
0.299071 0.0872729 -0.599 
103 144 141 
0.302718 0.0871273 -0.598 
104 145 140 
0.306864 0.0871273 -0.598 
109 147 143 
0.31153 0.0872729 -0.599 
112 150 148 
0.315683 0.0872729 -0.599 
102 143 138 
0.320369 0.0874186 -0.6 
112 159 156 
0.324529 0.0874186 -0.6 
110 140 143 
0.328141 0.0872729 -0.599 
111 146 147 
0.332294 0.0872729 -0.599 
104 146 145 
0.335885 0.0871273 -0.598 
107 149 148 
0.3406 0.0872729 -0.599 
107 155 149 
0.345328 0.0874186 -0.6 
106 154 148 
0.349488 0.0874186 -0.6 
103 153 149 
0.353648 0.0874186 -0.6 
105 150 148 
0.357211 0.0872729 -0.599 
112 153 150 
0.360761 0.0871273 -0.598 
108 149 146 
0.364907 0.0871273 -0.598 
118 149 149 
0.369053 0.0871273 -0.598 
118 145 140 
0.373823 0.0872729 -0.599 
119 157 153 
0.378607 0.0874186 -0.6 
112 150 148 
0.384043 0.0877101 -0.602 
110 153 147 
0.388216 0.0877101 -0.602 
112 150 146 
0.39239 0.0877101 -0.602 
115 151 147 
0.395246 0.0874186 -0.6 
115 151 147 
0.39874 0.0872729 -0.599 
115 151 147 
0.402893 0.0872729 -0.599 
115 151 147 
0.407046 0.0872729 -0.599 
115 151 147 
0.411199 0.0872729 -0.599 
115 151 147 
0.415352 0.0872729 -0.599 
115 151 147 
0.419505 0.0872729 -0.599 
115 151 147 
0.424365 0.0874186 -0.6 
115 151 147 
0.428525 0.0874186 -0.6 
115 151 147 
0.433406 0.0875643 -0.601 
115 151 147 
0.4383 0.0877101 -0.602 
114 150 148 
0.442474 0.0877101 -0.602 
114 150 148 
0.445906 0.0875643 -0.601 
114 150 148 
0.449324 0.0874186 -0.6 
114 150 148 
0.452728 0.0872729 -0.599 
114 150 148 
0.456881 0.0872729 -0.599 
114 150 148 
0.460264 0.0871273 -0.598 
114 150 148 
0.46441 0.0871273 -0.598 
114 150 148 
0.468556 0.0871273 -0.598 
114 150 148 
0.473492 0.0872729 -0.599 
114 150 148 
0.477645 0.0872729 -0.599 
114 150 148 
0.482602 0.0874186 -0.6 
114 150 148 
0.486762 0.0874186 -0.6 
114 150 148 
0.490104 0.0872729 -0.599 
114 150 148 
0.494257 0.0872729 -0.599 
114 150 148 
0.497577 0.0871273 -0.598 
114 150 148 
0.500884 0.0869815 -0.597 
114 150 148 
0.505023 0.0869815 -0.597 
114 150 148 
0.508309 0.0868359 -0.596 
114 150 148 
0.512442 0.0868359 -0.596 
114 150 148 
0.516574 0.0868359 -0.596 
114 150 148 
0.521579 0.0869815 -0.597 
114 150 148 
0.526599 0.0871273 -0.598 
114 150 148 
0.531632 0.0872729 -0.599 
114 150 148 
0.535785 0.0872729 -0.599 
114 150 148 
0.539938 0.0872729 -0.599 
114 150 148 
0.544999 0.0874186 -0.6 
114 150 148 
0.550074 0.0875643 -0.601 
114 150 148 
0.554241 0.0875643 -0.601 
114 150 148 
0.558408 0.0875643 -0.601 
114 150 148 
0.560703 0.0872729 -0.599 
114 150 148 
0.563913 0.0871273 -0.598 
114 150 148 
0.567108 0.0869815 -0.597 
114 150 148 
0.571248 0.0869815 -0.597 
114 150 148 
0.575387 0.0869815 -0.597 
114 150 148 
0.580496 0.0871273 -0.598 
114 150 148 
0.584642 0.0871273 -0.598 
114 150 148 
-0.433999 0.0835364 -0.602 
64 107 99 
-0.428397 0.0832588 -0.6 
66 107 102 
-0.424237 0.0832588 -0.6 
76 107 107 
-0.420077 0.0832588 -0.6 
67 105 103 
-0.415918 0.0832588 -0.6 
62 108 103 
-0.412444 0.0833976 -0.601 
63 109 100 
-0.408277 0.0833976 -0.601 
69 101 94 
-0.404783 0.0835364 -0.602 
62 108 99 
-0.400609 0.0835364 -0.602 
71 110 97 
-0.396436 0.0835364 -0.602 
62 105 97 
-0.392262 0.0835364 -0.602 
62 108 101 
-0.388088 0.0835364 -0.602 
63 104 97 
-0.383915 0.0835364 -0.602 
67 107 107 
-0.379741 0.0835364 -0.602 
63 103 103 
-0.375567 0.0835364 -0.602 
63 101 97 
-0.371394 0.0835364 -0.602 
68 106 102 
-0.36783 0.0836751 -0.603 
73 109 103 
-0.363649 0.0836751 -0.603 
74 111 102 
-0.358873 0.0835364 -0.602 
73 117 106 
-0.354699 0.0835364 -0.602 
77 119 109 
-0.350525 0.0835364 -0.602 
66 109 105 
-0.346351 0.0835364 -0.602 
62 103 98 
-0.342178 0.0835364 -0.602 
69 98 95 
-0.338004 0.0835364 -0.602 
75 107 100 
-0.33383 0.0835364 -0.602 
66 108 98 
-0.329657 0.0835364 -0.602 
57 100 92 
-0.326024 0.0836751 -0.603 
62 101 92 
-0.322377 0.0838139 -0.604 
64 102 98 
-0.318189 0.0838139 -0.604 
63 100 91 
-0.314522 0.0839527 -0.605 
64 99 91 
-0.310327 0.0839527 -0.605 
69 105 99 
-0.306133 0.0839527 -0.605 
64 100 94 
-0.301439 0.0838139 -0.604 
66 97 93 
-0.296759 0.0836751 -0.603 
64 101 92 
-0.292579 0.0836751 -0.603 
58 99 92 
-0.288398 0.0836751 -0.603 
59 101 91 
-0.283746 0.0835364 -0.602 
60 99 88 
-0.278644 0.0832588 -0.6 
61 100 89 
-0.274026 0.0831201 -0.599 
60 97 86 
-0.269874 0.0831201 -0.599 
65 100 90 
-0.265721 0.0831201 -0.599 
70 97 88 
-0.262004 0.0832588 -0.6 
64 99 91 
-0.258704 0.0835364 -0.602 
65 102 93 
-0.254953 0.0836751 -0.603 
64 101 92 
-0.250357 0.0835364 -0.602 
60 95 85 
-0.245774 0.0833976 -0.601 
66 103 94 
-0.241205 0.0832588 -0.6 
61 100 89 
-0.237441 0.0833976 -0.601 
70 112 100 
-0.233662 0.0835364 -0.602 
67 109 99 
-0.22987 0.0836751 -0.603 
67 105 99 
-0.225689 0.0836751 -0.603 
68 106 100 
-0.222243 0.0839527 -0.605 
67 106 97 
-0.218049 0.0839527 -0.605 
69 108 97 
-0.213854 0.0839527 -0.605 
69 108 95 
-0.209313 0.0838139 -0.604 
72 107 95 
-0.204786 0.0836751 -0.603 
76 106 98 
-0.200273 0.0835364 -0.602 
70 109 100 
-0.195773 0.0833976 -0.601 
66 107 100 
-0.191606 0.0833976 -0.601 
65 109 98 
-0.18744 0.0833976 -0.601 
64 103 94 
-0.183273 0.0833976 -0.601 
74 109 97 
-0.179404 0.0835364 -0.602 
70 105 95 
-0.175231 0.0835364 -0.602 
68 107 94 
-0.171057 0.0835364 -0.602 
67 104 91 
-0.166606 0.0833976 -0.601 
67 104 91 
-0.162439 0.0833976 -0.601 
63 102 89 
-0.158272 0.0833976 -0.601 
65 104 91 
-0.154106 0.0833976 -0.601 
65 103 97 
-0.150188 0.0835364 -0.602 
58 99 94 
-0.146257 0.0836751 -0.603 
63 104 97 
-0.142312 0.0838139 -0.604 
63 102 93 
-0.138353 0.0839527 -0.605 
67 106 97 
-0.134159 0.0839527 -0.605 
63 104 99 
-0.129965 0.0839527 -0.605 
60 101 96 
-0.12577 0.0839527 -0.605 
59 102 94 
-0.121375 0.0838139 -0.604 
62 105 97 
-0.117187 0.0838139 -0.604 
59 103 92 
-0.112812 0.0836751 -0.603 
58 102 91 
-0.108812 0.0838139 -0.604 
59 101 91 
-0.104624 0.0838139 -0.604 
61 100 91 
-0.100437 0.0838139 -0.604 
61 102 95 
-0.09609 0.0836751 -0.603 
63 105 95 
-0.0914521 0.0832588 -0.6 
61 105 94 
-0.0868558 0.0828425 -0.597 
57 96 85 
-0.0821626 0.0822875 -0.593 
52 88 72 
-0.0776565 0.0818712 -0.59 
53 88 76 
-0.0731919 0.0814549 -0.587 
37 65 52 
-0.0688867 0.0811774 -0.585 
20 25 15 
-0.0647201 0.0810386 -0.584 
21 29 16 
-0.0605673 0.0808998 -0.583 
13 23 7 
-0.0565253 0.0808998 -0.583 
10 20 8 
-0.0524834 0.0808998 -0.583 
17 19 10 
-0.0484414 0.0808998 -0.583 
10 23 10 
-0.0444757 0.0810386 -0.584 
12 22 6 
-0.040496 0.0811774 -0.585 
14 22 7 
-0.0363779 0.0810386 -0.584 
15 23 10 
-0.032329 0.0810386 -0.584 
15 23 10 
-0.0282317 0.0808998 -0.583 
15 28 13 
-0.0241897 0.0808998 -0.583 
15 25 11 
-0.0201478 0.0808998 -0.583 
22 31 13 
-0.0161058 0.0808998 -0.583 
57 73 41 
-0.0120639 0.0808998 -0.583 
50 67 39 
-0.00802192 0.0808998 -0.583 
24 26 15 
-0.00397997 0.0808998 -0.583 
21 29 16 
6.19837e-05 0.0808998 -0.583 
19 30 11 
0.00411098 0.0810386 -0.584 
15 28 15 
0.00817383 0.0811774 -0.585 
17 27 13 
0.0122297 0.0811774 -0.585 
13 26 13 
0.0162855 0.0811774 -0.585 
15 28 13 
0.0203413 0.0811774 -0.585 
18 28 14 
0.0243554 0.0810386 -0.584 
14 24 10 
0.0284043 0.0810386 -0.584 
16 24 11 
0.0324532 0.0810386 -0.584 
15 25 13 
0.0365021 0.0810386 -0.584 
16 29 14 
0.0405509 0.0810386 -0.584 
19 27 14 
0.0447526 0.0813161 -0.586 
14 24 10 
0.0488986 0.0814549 -0.587 
19 29 13 
0.0530585 0.0815936 -0.588 
18 28 12 
0.0572323 0.0817324 -0.589 
15 28 13 
0.0615241 0.0820099 -0.591 
15 28 15 
0.0658436 0.0822875 -0.593 
20 30 16 
0.0701908 0.082565 -0.595 
21 29 16 
0.0744408 0.0827038 -0.596 
62 67 53 
0.0785729 0.0827038 -0.596 
60 64 36 
0.0825662 0.082565 -0.595 
21 30 10 
0.0866914 0.082565 -0.595 
23 28 16 
0.0906639 0.0824262 -0.594 
20 28 15 
0.0946226 0.0822875 -0.593 
19 29 13 
0.0985673 0.0821487 -0.592 
18 31 14 
0.102498 0.0820099 -0.591 
19 29 17 
0.106596 0.0820099 -0.591 
18 28 14 
0.11088 0.0821487 -0.592 
19 29 15 
0.115179 0.0822875 -0.593 
18 28 14 
0.119491 0.0824262 -0.594 
17 27 13 
0.123818 0.082565 -0.595 
22 32 18 
0.128158 0.0827038 -0.596 
53 60 38 
0.132734 0.0829813 -0.598 
46 58 34 
0.137567 0.0833976 -0.601 
111 131 114 
0.141969 0.0835364 -0.602 
105 141 135 
0.146143 0.0835364 -0.602 
100 136 132 
0.150316 0.0835364 -0.602 
102 138 132 
0.154234 0.0833976 -0.601 
105 143 139 
0.1584 0.0833976 -0.601 
102 140 134 
0.162567 0.0833976 -0.601 
106 142 136 
0.166456 0.0832588 -0.6 
112 147 139 
0.170616 0.0832588 -0.6 
103 142 133 
0.174776 0.0832588 -0.6 
106 142 136 
0.178936 0.0832588 -0.6 
110 144 139 
0.18279 0.0831201 -0.599 
108 143 133 
0.186631 0.0829813 -0.598 
111 150 141 
0.190777 0.0829813 -0.598 
106 135 132 
0.195249 0.0831201 -0.599 
108 135 130 
0.199402 0.0831201 -0.599 
107 142 134 
0.203555 0.0831201 -0.599 
102 137 129 
0.208054 0.0832588 -0.6 
106 142 136 
0.212214 0.0832588 -0.6 
104 140 134 
0.216374 0.0832588 -0.6 
104 143 134 
0.220534 0.0832588 -0.6 
105 143 139 
0.224694 0.0832588 -0.6 
104 140 134 
0.228854 0.0832588 -0.6 
113 147 142 
0.232625 0.0831201 -0.599 
102 137 127 
0.236778 0.0831201 -0.599 
105 142 131 
0.241333 0.0832588 -0.6 
106 149 141 
0.245902 0.0833976 -0.601 
105 146 139 
0.250901 0.0836751 -0.603 
112 148 142 
0.254658 0.0835364 -0.602 
112 146 141 
0.258402 0.0833976 -0.601 
112 143 141 
0.262569 0.0833976 -0.601 
114 145 141 
0.26718 0.0835364 -0.602 
111 146 147 
0.271353 0.0835364 -0.602 
111 148 149 
0.275527 0.0835364 -0.602 
102 143 140 
0.279701 0.0835364 -0.602 
107 148 145 
0.283874 0.0835364 -0.602 
110 148 146 
0.288048 0.0835364 -0.602 
104 151 150 
0.292222 0.0835364 -0.602 
111 154 150 
0.296395 0.0835364 -0.602 
110 152 153 
0.30007 0.0833976 -0.601 
106 152 147 
0.303224 0.0831201 -0.599 
105 146 139 
0.306864 0.0829813 -0.598 
112 150 146 
0.31153 0.0831201 -0.599 
106 148 149 
0.31621 0.0832588 -0.6 
106 151 151 
0.320369 0.0832588 -0.6 
110 144 143 
0.323988 0.0831201 -0.599 
111 147 143 
0.327593 0.0829813 -0.598 
116 150 147 
0.331185 0.0828425 -0.597 
116 153 154 
0.335324 0.0828425 -0.597 
112 147 148 
0.340031 0.0829813 -0.598 
115 156 151 
0.344753 0.0831201 -0.599 
100 152 148 
0.349488 0.0832588 -0.6 
105 153 147 
0.353059 0.0831201 -0.599 
112 149 150 
0.357211 0.0831201 -0.599 
110 152 153 
0.360761 0.0829813 -0.598 
111 149 147 
0.364907 0.0829813 -0.598 
118 147 144 
0.369053 0.0829813 -0.598 
117 151 148 
0.373823 0.0831201 -0.599 
113 158 158 
0.378607 0.0832588 -0.6 
106 155 156 
0.384043 0.0835364 -0.602 
112 152 152 
0.388216 0.0835364 -0.602 
112 152 152 
0.39239 0.0835364 -0.602 
112 152 154 
0.395905 0.0833976 -0.601 
112 152 154 
0.399406 0.0832588 -0.6 
112 152 154 
0.403566 0.0832588 -0.6 
112 152 154 
0.407726 0.0832588 -0.6 
112 152 154 
0.411885 0.0832588 -0.6 
112 152 154 
0.416739 0.0833976 -0.601 
112 152 154 
0.420905 0.0833976 -0.601 
112 152 154 
0.425072 0.0833976 -0.601 
112 152 154 
0.429239 0.0833976 -0.601 
112 152 154 
0.434127 0.0835364 -0.602 
112 152 154 
0.4383 0.0835364 -0.602 
112 152 154 
0.441739 0.0833976 -0.601 
112 152 154 
0.445164 0.0832588 -0.6 
112 152 154 
0.448575 0.0831201 -0.599 
112 152 154 
0.451216 0.0828425 -0.597 
112 152 154 
0.455355 0.0828425 -0.597 
112 152 154 
0.459494 0.0828425 -0.597 
112 152 154 
0.46441 0.0829813 -0.598 
112 152 154 
0.468556 0.0829813 -0.598 
112 152 154 
0.473492 0.0831201 -0.599 
112 152 154 
0.476848 0.0829813 -0.598 
112 152 154 
0.481798 0.0831201 -0.599 
112 152 154 
0.485951 0.0831201 -0.599 
112 152 154 
0.489285 0.0829813 -0.598 
112 152 154 
0.493431 0.0829813 -0.598 
112 152 154 
0.497577 0.0829813 -0.598 
112 152 154 
0.500884 0.0828425 -0.597 
112 152 154 
0.505023 0.0828425 -0.597 
112 152 154 
0.509162 0.0828425 -0.597 
112 152 154 
0.513301 0.0828425 -0.597 
112 152 154 
0.51744 0.0828425 -0.597 
112 152 154 
0.522453 0.0829813 -0.598 
112 152 154 
0.526599 0.0829813 -0.598 
112 152 154 
0.531632 0.0831201 -0.599 
112 152 154 
0.535785 0.0831201 -0.599 
112 152 154 
0.539938 0.0831201 -0.599 
112 152 154 
0.544999 0.0832588 -0.6 
112 152 154 
0.549159 0.0832588 -0.6 
112 152 154 
0.553319 0.0832588 -0.6 
112 152 154 
0.557479 0.0832588 -0.6 
107 147 149 
0.560703 0.0831201 -0.599 
107 147 149 
0.563913 0.0829813 -0.598 
107 147 149 
0.567108 0.0828425 -0.597 
107 147 149 
0.571248 0.0828425 -0.597 
107 147 149 
0.575387 0.0828425 -0.597 
107 147 149 
0.579526 0.0828425 -0.597 
107 147 149 
0.583665 0.0828425 -0.597 
107 147 149 
-0.433999 0.0793627 -0.602 
72 110 106 
-0.428397 0.079099 -0.6 
77 111 106 
-0.42353 0.0789672 -0.599 
69 104 107 
-0.419377 0.0789672 -0.599 
68 110 109 
-0.415224 0.0789672 -0.599 
73 109 107 
-0.412444 0.0792308 -0.601 
72 108 104 
-0.408957 0.0793627 -0.602 
60 104 93 
-0.404783 0.0793627 -0.602 
62 105 97 
-0.400609 0.0793627 -0.602 
60 106 97 
-0.396436 0.0793627 -0.602 
64 107 103 
-0.392262 0.0793627 -0.602 
65 106 101 
-0.388733 0.0794945 -0.603 
67 101 100 
-0.384552 0.0794945 -0.603 
80 111 109 
-0.379741 0.0793627 -0.602 
65 106 101 
-0.375567 0.0793627 -0.602 
77 104 99 
-0.37201 0.0794945 -0.603 
74 104 96 
-0.36783 0.0794945 -0.603 
72 106 101 
-0.364252 0.0796263 -0.604 
81 113 104 
-0.359469 0.0794945 -0.603 
81 119 115 
-0.355288 0.0794945 -0.603 
75 113 107 
-0.350525 0.0793627 -0.602 
62 108 99 
-0.346351 0.0793627 -0.602 
75 104 101 
-0.342178 0.0793627 -0.602 
62 104 94 
-0.338004 0.0793627 -0.602 
74 110 104 
-0.333276 0.0792308 -0.601 
51 99 91 
-0.329109 0.0792308 -0.601 
64 103 94 
-0.325483 0.0793627 -0.602 
65 97 88 
-0.321843 0.0794945 -0.603 
66 101 93 
-0.318189 0.0796263 -0.604 
57 94 85 
-0.314522 0.0797582 -0.605 
64 101 90 
-0.310327 0.0797582 -0.605 
64 99 87 
-0.306639 0.07989 -0.606 
65 102 93 
-0.301938 0.0797582 -0.605 
64 103 94 
-0.297252 0.0796263 -0.604 
63 102 93 
-0.293064 0.0796263 -0.604 
62 104 94 
-0.28792 0.0793627 -0.602 
61 100 91 
-0.283275 0.0792308 -0.601 
60 99 90 
-0.278644 0.079099 -0.6 
59 96 87 
-0.274026 0.0789672 -0.599 
66 98 91 
-0.269874 0.0789672 -0.599 
65 100 90 
-0.265721 0.0789672 -0.599 
58 93 83 
-0.262004 0.079099 -0.6 
62 99 88 
-0.258274 0.0792308 -0.601 
65 103 97 
-0.25453 0.0793627 -0.602 
63 104 99 
-0.250773 0.0794945 -0.603 
66 102 98 
-0.246592 0.0794945 -0.603 
60 103 97 
-0.242411 0.0794945 -0.603 
62 105 97 
-0.238231 0.0794945 -0.603 
63 109 100 
-0.234438 0.0796263 -0.604 
65 106 99 
-0.22987 0.0794945 -0.603 
66 109 103 
-0.225689 0.0794945 -0.603 
62 105 99 
-0.221508 0.0794945 -0.603 
60 107 95 
-0.217688 0.0796263 -0.604 
62 104 94 
-0.213854 0.0797582 -0.605 
66 107 100 
-0.20966 0.0797582 -0.605 
66 109 101 
-0.205126 0.0796263 -0.604 
65 106 99 
-0.200605 0.0794945 -0.603 
67 102 94 
-0.196099 0.0793627 -0.602 
71 106 96 
-0.191606 0.0792308 -0.601 
70 107 96 
-0.18744 0.0792308 -0.601 
71 108 99 
-0.183273 0.0792308 -0.601 
71 107 101 
-0.179404 0.0793627 -0.602 
68 106 100 
-0.175231 0.0793627 -0.602 
68 107 98 
-0.171057 0.0793627 -0.602 
66 103 94 
-0.166883 0.0793627 -0.602 
67 102 90 
-0.162439 0.0792308 -0.601 
68 103 93 
-0.158536 0.0793627 -0.602 
67 102 92 
-0.154362 0.0793627 -0.602 
65 102 93 
-0.150188 0.0793627 -0.602 
60 97 88 
-0.1465 0.0796263 -0.604 
62 101 92 
-0.142312 0.0796263 -0.604 
62 104 94 
-0.138353 0.0797582 -0.605 
56 98 86 
-0.133937 0.0796263 -0.604 
62 103 96 
-0.12975 0.0796263 -0.604 
63 101 95 
-0.125562 0.0796263 -0.604 
62 100 94 
-0.121174 0.0794945 -0.603 
62 105 97 
-0.116993 0.0794945 -0.603 
60 103 97 
-0.112812 0.0794945 -0.603 
58 99 92 
-0.108812 0.0796263 -0.604 
60 99 90 
-0.104624 0.0796263 -0.604 
62 106 95 
-0.100437 0.0796263 -0.604 
57 103 96 
-0.0962493 0.0796263 -0.604 
61 103 93 
-0.0914521 0.079099 -0.6 
63 105 95 
-0.0868558 0.0787035 -0.597 
57 96 87 
-0.0820241 0.0780444 -0.592 
54 89 79 
-0.0775248 0.0776489 -0.589 
55 87 78 
-0.0730672 0.0772534 -0.586 
37 65 50 
-0.068769 0.0769897 -0.584 
12 27 9 
-0.0644984 0.076726 -0.582 
25 33 20 
-0.0603595 0.0765942 -0.581 
13 23 9 
-0.0563314 0.0765942 -0.581 
11 21 9 
-0.0523934 0.076726 -0.582 
12 19 11 
-0.0484414 0.0768579 -0.583 
13 21 8 
-0.0443995 0.0768579 -0.583 
13 23 7 
-0.0403575 0.0768579 -0.583 
13 24 5 
-0.0363156 0.0768579 -0.583 
13 23 11 
-0.0322736 0.0768579 -0.583 
17 27 13 
-0.0282317 0.0768579 -0.583 
13 26 11 
-0.0241482 0.076726 -0.582 
12 25 10 
-0.0201478 0.0768579 -0.583 
54 66 40 
-0.0161058 0.0768579 -0.583 
55 59 38 
-0.0120639 0.0768579 -0.583 
20 30 16 
-0.00802192 0.0768579 -0.583 
18 28 16 
-0.00397997 0.0768579 -0.583 
19 29 15 
6.19837e-05 0.0768579 -0.583 
17 27 11 
0.00411802 0.0771215 -0.585 
18 26 15 
0.00818781 0.0772534 -0.586 
15 23 10 
0.0122715 0.0773852 -0.587 
20 28 15 
0.0163411 0.0773852 -0.587 
16 24 11 
0.0203761 0.0772534 -0.586 
15 25 11 
0.0243971 0.0771215 -0.585 
15 28 13 
0.0285016 0.0772534 -0.586 
14 24 10 
0.0325643 0.0772534 -0.586 
16 29 16 
0.0366271 0.0772534 -0.586 
15 27 17 
0.0406898 0.0772534 -0.586 
17 27 15 
0.0448289 0.0773852 -0.587 
19 29 15 
0.0490652 0.0776489 -0.589 
16 29 12 
0.0531488 0.0776489 -0.589 
18 26 13 
0.0573295 0.0777807 -0.59 
18 28 16 
0.0615241 0.0779125 -0.591 
13 25 15 
0.0658436 0.0781762 -0.593 
16 29 16 
0.0700728 0.078308 -0.594 
16 29 14 
0.0743159 0.0784399 -0.595 
20 30 16 
0.0785729 0.0785717 -0.596 
76 84 71 
0.082705 0.0785717 -0.596 
73 78 48 
0.0866914 0.0784399 -0.595 
29 31 18 
0.0906639 0.078308 -0.594 
21 26 12 
0.0947821 0.078308 -0.594 
19 29 13 
0.0987338 0.0781762 -0.593 
18 31 14 
0.102845 0.0781762 -0.593 
19 32 19 
0.106776 0.0780444 -0.592 
20 28 13 
0.110693 0.0779125 -0.591 
19 29 13 
0.114985 0.0780444 -0.592 
21 29 18 
0.11929 0.0781762 -0.593 
20 28 15 
0.123818 0.0784399 -0.595 
21 29 16 
0.128158 0.0785717 -0.596 
57 71 49 
0.132734 0.0788354 -0.598 
46 50 27 
0.137338 0.079099 -0.6 
114 129 113 
0.141733 0.0792308 -0.601 
108 140 131 
0.1459 0.0792308 -0.601 
104 143 132 
0.150067 0.0792308 -0.601 
98 135 124 
0.153977 0.079099 -0.6 
106 143 134 
0.158137 0.079099 -0.6 
105 144 133 
0.162297 0.079099 -0.6 
111 148 135 
0.166456 0.079099 -0.6 
110 142 131 
0.170332 0.0789672 -0.599 
109 144 132 
0.174776 0.079099 -0.6 
112 147 135 
0.178936 0.079099 -0.6 
109 145 139 
0.18279 0.0789672 -0.599 
111 147 141 
0.186943 0.0789672 -0.599 
112 148 144 
0.191096 0.0789672 -0.599 
107 145 139 
0.195249 0.0789672 -0.599 
109 144 136 
0.199402 0.0789672 -0.599 
110 142 133 
0.203555 0.0789672 -0.599 
109 143 138 
0.207708 0.0789672 -0.599 
111 147 141 
0.211861 0.0789672 -0.599 
106 141 133 
0.216013 0.0789672 -0.599 
110 142 133 
0.220166 0.0789672 -0.599 
107 142 134 
0.224319 0.0789672 -0.599 
105 142 133 
0.228091 0.0788354 -0.598 
106 143 134 
0.232237 0.0788354 -0.598 
107 139 132 
0.236778 0.0789672 -0.599 
109 141 134 
0.241333 0.079099 -0.6 
102 141 132 
0.246311 0.0793627 -0.602 
99 136 127 
0.250901 0.0794945 -0.603 
104 141 130 
0.255082 0.0794945 -0.603 
106 141 131 
0.259262 0.0794945 -0.603 
108 143 135 
0.263006 0.0793627 -0.602 
116 151 143 
0.267623 0.0794945 -0.603 
115 146 142 
0.271804 0.0794945 -0.603 
109 143 142 
0.275985 0.0794945 -0.603 
108 144 140 
0.280165 0.0794945 -0.603 
108 144 138 
0.284346 0.0794945 -0.603 
112 148 142 
0.288526 0.0794945 -0.603 
113 147 144 
0.292707 0.0794945 -0.603 
109 145 143 
0.296888 0.0794945 -0.603 
111 151 151 
0.300569 0.0793627 -0.602 
98 143 143 
0.304236 0.0792308 -0.601 
111 154 150 
0.30789 0.079099 -0.6 
109 145 141 
0.31205 0.079099 -0.6 
117 151 150 
0.316737 0.0792308 -0.601 
113 148 151 
0.320903 0.0792308 -0.601 
112 147 148 
0.324529 0.079099 -0.6 
112 148 146 
0.328141 0.0789672 -0.599 
115 151 147 
0.331739 0.0788354 -0.598 
115 150 153 
0.335324 0.0787035 -0.597 
111 151 151 
0.339463 0.0787035 -0.597 
109 149 151 
0.344177 0.0788354 -0.598 
108 148 150 
0.348906 0.0789672 -0.599 
111 152 147 
0.353648 0.079099 -0.6 
113 151 147 
0.357211 0.0789672 -0.599 
106 143 134 
0.361364 0.0789672 -0.599 
112 151 142 
0.365517 0.0789672 -0.599 
108 144 138 
0.36967 0.0789672 -0.599 
119 151 144 
0.374447 0.079099 -0.6 
112 157 155 
0.379238 0.0792308 -0.601 
104 150 145 
0.384043 0.0793627 -0.602 
106 151 149 
0.388861 0.0794945 -0.603 
107 151 154 
0.393042 0.0794945 -0.603 
105 150 150 
0.396564 0.0793627 -0.602 
105 150 150 
0.400737 0.0793627 -0.602 
105 150 150 
0.404911 0.0793627 -0.602 
105 150 150 
0.408405 0.0792308 -0.601 
105 150 150 
0.413258 0.0793627 -0.602 
105 150 150 
0.417432 0.0793627 -0.602 
105 150 150 
0.422306 0.0794945 -0.603 
105 150 150 
0.425779 0.0793627 -0.602 
105 150 150 
0.429953 0.0793627 -0.602 
105 150 150 
0.433406 0.0792308 -0.601 
105 150 150 
0.437572 0.0792308 -0.601 
105 150 150 
0.441739 0.0792308 -0.601 
105 150 150 
0.445164 0.079099 -0.6 
105 150 150 
0.447826 0.0788354 -0.598 
105 150 150 
0.45046 0.0785717 -0.596 
105 150 150 
0.454592 0.0785717 -0.596 
105 150 150 
0.458724 0.0785717 -0.596 
105 150 150 
0.46441 0.0788354 -0.598 
105 150 150 
0.469339 0.0789672 -0.599 
105 150 150 
0.473492 0.0789672 -0.599 
105 150 150 
0.476848 0.0788354 -0.598 
105 150 150 
0.480189 0.0787035 -0.597 
105 150 150 
0.484328 0.0787035 -0.597 
105 150 150 
0.488467 0.0787035 -0.597 
105 150 150 
0.493431 0.0788354 -0.598 
105 150 150 
0.497577 0.0788354 -0.598 
105 150 150 
0.501723 0.0788354 -0.598 
105 150 150 
0.505023 0.0787035 -0.597 
104 146 145 
0.509162 0.0787035 -0.597 
104 146 145 
0.513301 0.0787035 -0.597 
104 146 145 
0.51744 0.0787035 -0.597 
104 146 145 
0.522453 0.0788354 -0.598 
104 146 145 
0.52748 0.0789672 -0.599 
104 146 145 
0.531632 0.0789672 -0.599 
104 146 145 
0.53668 0.079099 -0.6 
104 146 145 
0.54084 0.079099 -0.6 
104 146 145 
0.544999 0.079099 -0.6 
104 146 145 
0.548244 0.0789672 -0.599 
104 146 145 
0.552397 0.0789672 -0.599 
104 146 145 
0.55655 0.0789672 -0.599 
104 146 145 
0.559767 0.0788354 -0.598 
104 146 145 
0.56297 0.0787035 -0.597 
104 146 145 
0.567108 0.0787035 -0.597 
104 146 145 
0.571248 0.0787035 -0.597 
104 146 145 
0.575387 0.0787035 -0.597 
104 146 145 
0.579526 0.0787035 -0.597 
104 146 145 
0.583665 0.0787035 -0.597 
104 146 145 
-0.433999 0.075189 -0.602 
71 107 103 
-0.428397 0.0749392 -0.6 
62 103 100 
-0.42353 0.0748143 -0.599 
70 106 102 
-0.418677 0.0746894 -0.598 
74 110 106 
-0.415224 0.0748143 -0.599 
71 105 102 
-0.412444 0.0750641 -0.601 
71 107 103 
-0.408957 0.075189 -0.602 
66 112 107 
-0.405455 0.0753139 -0.603 
64 107 99 
-0.401275 0.0753139 -0.603 
77 113 111 
-0.397094 0.0753139 -0.603 
79 110 110 
-0.392914 0.0753139 -0.603 
74 105 103 
-0.389378 0.0754388 -0.604 
69 110 105 
-0.38519 0.0754388 -0.604 
65 103 99 
-0.380372 0.0753139 -0.603 
65 108 104 
-0.376191 0.0753139 -0.603 
68 102 101 
-0.37201 0.0753139 -0.603 
68 106 104 
-0.36844 0.0754388 -0.604 
66 107 100 
-0.364252 0.0754388 -0.604 
76 113 104 
-0.360065 0.0754388 -0.604 
80 114 109 
-0.355877 0.0754388 -0.604 
77 114 105 
-0.350525 0.075189 -0.602 
71 110 99 
-0.346351 0.075189 -0.602 
67 105 99 
-0.341041 0.0749392 -0.6 
67 108 105 
-0.336881 0.0749392 -0.6 
74 104 96 
-0.332721 0.0749392 -0.6 
59 110 101 
-0.328561 0.0749392 -0.6 
70 107 98 
-0.324942 0.0750641 -0.601 
69 101 92 
-0.320776 0.0750641 -0.601 
68 103 93 
-0.317663 0.0753139 -0.603 
59 96 87 
-0.314002 0.0754388 -0.604 
64 100 94 
-0.310327 0.0755637 -0.605 
64 101 90 
-0.306639 0.0756886 -0.606 
66 103 90 
-0.302437 0.0756886 -0.606 
63 95 84 
-0.297744 0.0755637 -0.605 
63 100 89 
-0.293549 0.0755637 -0.605 
62 101 92 
-0.288876 0.0754388 -0.604 
60 102 92 
-0.284218 0.0753139 -0.603 
62 101 88 
-0.279108 0.0750641 -0.601 
67 99 88 
-0.274484 0.0749392 -0.6 
66 101 91 
-0.270324 0.0749392 -0.6 
65 102 89 
-0.266164 0.0749392 -0.6 
64 99 89 
-0.262004 0.0749392 -0.6 
66 101 91 
-0.258274 0.0750641 -0.601 
61 103 89 
-0.25453 0.075189 -0.602 
63 105 91 
-0.250773 0.0753139 -0.603 
67 104 91 
-0.247001 0.0754388 -0.604 
64 102 96 
-0.242813 0.0754388 -0.604 
58 104 95 
-0.238626 0.0754388 -0.604 
69 110 105 
-0.234438 0.0754388 -0.604 
65 108 102 
-0.22987 0.0753139 -0.603 
69 110 103 
-0.225315 0.075189 -0.602 
64 103 94 
-0.221141 0.075189 -0.602 
70 111 104 
-0.217328 0.0753139 -0.603 
64 107 99 
-0.213501 0.0754388 -0.604 
70 111 106 
-0.20966 0.0755637 -0.605 
75 106 102 
-0.205126 0.0754388 -0.604 
67 102 94 
-0.200938 0.0754388 -0.604 
68 107 98 
-0.196425 0.0753139 -0.603 
64 107 103 
-0.191925 0.075189 -0.602 
59 106 103 
-0.187752 0.075189 -0.602 
63 108 106 
-0.183578 0.075189 -0.602 
62 105 101 
-0.179404 0.075189 -0.602 
67 110 104 
-0.175231 0.075189 -0.602 
68 106 100 
-0.171057 0.075189 -0.602 
70 102 95 
-0.16716 0.0753139 -0.603 
65 103 97 
-0.16271 0.075189 -0.602 
62 104 94 
-0.158799 0.0753139 -0.603 
64 103 94 
-0.154619 0.0753139 -0.603 
67 104 95 
-0.150687 0.0754388 -0.604 
64 101 90 
-0.1465 0.0754388 -0.604 
65 104 95 
-0.142548 0.0755637 -0.605 
63 104 97 
-0.138125 0.0754388 -0.604 
63 105 95 
-0.133937 0.0754388 -0.604 
66 107 100 
-0.129535 0.0753139 -0.603 
61 102 95 
-0.125146 0.075189 -0.602 
63 102 93 
-0.120973 0.075189 -0.602 
65 104 95 
-0.116799 0.075189 -0.602 
63 101 95 
-0.112625 0.075189 -0.602 
64 102 96 
-0.108632 0.0753139 -0.603 
60 102 92 
-0.104624 0.0754388 -0.604 
67 108 101 
-0.100437 0.0754388 -0.604 
62 108 99 
-0.09609 0.0753139 -0.603 
65 111 102 
-0.0914521 0.0749392 -0.6 
61 104 96 
-0.0868558 0.0745645 -0.597 
57 101 88 
-0.0820241 0.07394 -0.592 
50 89 78 
-0.0775248 0.0735653 -0.589 
49 88 77 
-0.0730672 0.0731906 -0.586 
36 62 49 
-0.0686512 0.0728159 -0.583 
18 26 15 
-0.0643876 0.0725661 -0.581 
25 34 25 
-0.0602556 0.0724412 -0.58 
15 25 11 
-0.0562345 0.0724412 -0.58 
13 23 11 
-0.0523934 0.072691 -0.582 
8 25 11 
-0.0484414 0.0728159 -0.583 
12 22 10 
-0.0443995 0.0728159 -0.583 
15 23 10 
-0.0403575 0.0728159 -0.583 
16 24 11 
-0.0363156 0.0728159 -0.583 
16 24 11 
-0.0322736 0.0728159 -0.583 
18 26 11 
-0.0282317 0.0728159 -0.583 
17 27 11 
-0.0241482 0.072691 -0.582 
37 51 29 
-0.0201478 0.0728159 -0.583 
43 54 33 
-0.0161058 0.0728159 -0.583 
22 27 13 
-0.0120846 0.0729408 -0.584 
20 25 13 
-0.00803568 0.0729408 -0.584 
18 26 13 
-0.00397997 0.0728159 -0.583 
19 29 15 
6.19837e-05 0.0728159 -0.583 
18 28 14 
0.00411802 0.0730657 -0.585 
15 28 13 
0.00818781 0.0731906 -0.586 
18 26 13 
0.0122715 0.0733155 -0.587 
18 28 14 
0.0163411 0.0733155 -0.587 
12 25 12 
0.0204108 0.0733155 -0.587 
15 28 13 
0.0244805 0.0733155 -0.587 
16 29 14 
0.0285988 0.0734404 -0.588 
18 28 12 
0.0327866 0.0736902 -0.59 
17 30 13 
0.0368771 0.0736902 -0.59 
16 31 15 
0.0409676 0.0736902 -0.59 
18 31 14 
0.045058 0.0736902 -0.59 
16 29 12 
0.0492318 0.0738151 -0.591 
15 25 11 
0.0534195 0.07394 -0.592 
18 28 14 
0.0575238 0.07394 -0.592 
16 24 11 
0.0617323 0.0740649 -0.593 
19 27 14 
0.0658436 0.0740649 -0.593 
19 29 15 
0.0700728 0.0741898 -0.594 
19 29 15 
0.0743159 0.0743147 -0.595 
20 30 16 
0.0785729 0.0744396 -0.596 
25 33 20 
0.082705 0.0744396 -0.596 
55 58 37 
0.0868371 0.0744396 -0.596 
54 64 39 
0.0909692 0.0744396 -0.596 
18 31 14 
0.0949417 0.0743147 -0.595 
20 30 14 
0.0992333 0.0744396 -0.596 
22 30 15 
0.103192 0.0743147 -0.595 
22 30 17 
0.107137 0.0741898 -0.594 
23 28 16 
0.111068 0.0740649 -0.593 
21 30 12 
0.115179 0.0740649 -0.593 
21 30 12 
0.119491 0.0741898 -0.594 
18 28 12 
0.123818 0.0743147 -0.595 
22 30 17 
0.128158 0.0744396 -0.596 
62 76 56 
0.132512 0.0745645 -0.597 
51 62 32 
0.137109 0.0748143 -0.599 
98 128 120 
0.141733 0.0750641 -0.601 
105 140 132 
0.145657 0.0749392 -0.6 
104 141 132 
0.149817 0.0749392 -0.6 
103 141 135 
0.153977 0.0749392 -0.6 
104 142 136 
0.158137 0.0749392 -0.6 
103 138 130 
0.162026 0.0748143 -0.599 
106 141 131 
0.166179 0.0748143 -0.599 
109 152 146 
0.170047 0.0746894 -0.598 
102 140 134 
0.174485 0.0748143 -0.599 
106 144 138 
0.178936 0.0749392 -0.6 
103 142 131 
0.18279 0.0748143 -0.599 
113 150 139 
0.186943 0.0748143 -0.599 
100 139 130 
0.191096 0.0748143 -0.599 
107 145 139 
0.195249 0.0748143 -0.599 
109 144 136 
0.199402 0.0748143 -0.599 
108 143 135 
0.203895 0.0749392 -0.6 
103 141 135 
0.208054 0.0749392 -0.6 
103 145 135 
0.211861 0.0748143 -0.599 
105 144 135 
0.215653 0.0746894 -0.598 
103 144 137 
0.219799 0.0746894 -0.598 
102 138 132 
0.223945 0.0746894 -0.598 
108 143 133 
0.228091 0.0746894 -0.598 
111 143 134 
0.232237 0.0746894 -0.598 
107 139 130 
0.236778 0.0748143 -0.599 
112 143 139 
0.241333 0.0749392 -0.6 
114 141 136 
0.245902 0.0750641 -0.601 
109 132 126 
0.250901 0.0753139 -0.603 
111 138 131 
0.255082 0.0753139 -0.603 
109 141 130 
0.259262 0.0753139 -0.603 
109 144 134 
0.263443 0.0753139 -0.603 
110 145 135 
0.267623 0.0753139 -0.603 
110 142 135 
0.271804 0.0753139 -0.603 
107 139 132 
0.275985 0.0753139 -0.603 
105 140 132 
0.280165 0.0753139 -0.603 
102 143 136 
0.284346 0.0753139 -0.603 
104 145 138 
0.288048 0.075189 -0.602 
114 148 143 
0.292222 0.075189 -0.602 
112 148 142 
0.296395 0.075189 -0.602 
109 145 141 
0.30007 0.0750641 -0.601 
109 144 136 
0.30373 0.0749392 -0.6 
105 140 130 
0.30789 0.0749392 -0.6 
107 144 131 
0.31257 0.0750641 -0.601 
106 145 136 
0.317264 0.075189 -0.602 
111 149 145 
0.321437 0.075189 -0.602 
107 145 143 
0.325611 0.075189 -0.602 
107 143 141 
0.328689 0.0749392 -0.6 
108 142 137 
0.332294 0.0748143 -0.599 
119 155 149 
0.335885 0.0746894 -0.598 
116 147 143 
0.340031 0.0746894 -0.598 
111 148 139 
0.344753 0.0748143 -0.599 
119 146 141 
0.349488 0.0749392 -0.6 
110 149 140 
0.353648 0.0749392 -0.6 
111 149 143 
0.358404 0.0750641 -0.601 
116 154 150 
0.362571 0.0750641 -0.601 
112 153 148 
0.366127 0.0749392 -0.6 
110 148 142 
0.370287 0.0749392 -0.6 
123 166 162 
0.374447 0.0749392 -0.6 
115 151 147 
0.378607 0.0749392 -0.6 
113 148 140 
0.384043 0.075189 -0.602 
117 149 140 
0.388861 0.0753139 -0.603 
114 146 137 
0.393042 0.0753139 -0.603 
114 145 141 
0.397222 0.0753139 -0.603 
114 145 141 
0.401403 0.0753139 -0.603 
114 145 141 
0.405584 0.0753139 -0.603 
114 145 141 
0.409085 0.075189 -0.602 
114 145 141 
0.413258 0.075189 -0.602 
114 145 141 
0.417432 0.075189 -0.602 
114 145 141 
0.421606 0.075189 -0.602 
114 145 141 
0.425779 0.075189 -0.602 
114 145 141 
0.429239 0.0750641 -0.601 
114 145 141 
0.433406 0.0750641 -0.601 
114 145 141 
0.437572 0.0750641 -0.601 
114 145 141 
0.441004 0.0749392 -0.6 
114 145 141 
0.444422 0.0748143 -0.599 
114 145 141 
0.447826 0.0746894 -0.598 
114 145 141 
0.45046 0.0744396 -0.596 
114 145 141 
0.454592 0.0744396 -0.596 
114 145 141 
0.459494 0.0745645 -0.597 
115 147 140 
0.465186 0.0748143 -0.599 
115 147 140 
0.470123 0.0749392 -0.6 
115 147 140 
0.473492 0.0748143 -0.599 
115 147 140 
0.47605 0.0745645 -0.597 
115 147 140 
0.480189 0.0745645 -0.597 
115 147 140 
0.483517 0.0744396 -0.596 
115 147 140 
0.488467 0.0745645 -0.597 
115 147 140 
0.493431 0.0746894 -0.598 
115 147 140 
0.497577 0.0746894 -0.598 
115 147 140 
0.502562 0.0748143 -0.599 
115 147 140 
0.505869 0.0746894 -0.598 
115 147 140 
0.510015 0.0746894 -0.598 
115 147 140 
0.514161 0.0746894 -0.598 
115 147 140 
0.518307 0.0746894 -0.598 
115 147 140 
0.522453 0.0746894 -0.598 
115 147 140 
0.52748 0.0748143 -0.599 
115 147 140 
0.53252 0.0749392 -0.6 
115 147 140 
0.53668 0.0749392 -0.6 
115 147 140 
0.54084 0.0749392 -0.6 
115 147 140 
0.544999 0.0749392 -0.6 
115 147 140 
0.547329 0.0746894 -0.598 
115 147 140 
0.551475 0.0746894 -0.598 
115 147 140 
0.554691 0.0745645 -0.597 
115 147 140 
0.557894 0.0744396 -0.596 
115 147 140 
0.560141 0.0741898 -0.594 
115 147 140 
0.565209 0.0743147 -0.595 
115 147 140 
0.570291 0.0744396 -0.596 
115 147 140 
0.574423 0.0744396 -0.596 
115 147 140 
0.578555 0.0744396 -0.596 
115 147 140 
0.582687 0.0744396 -0.596 
115 147 140 
-0.433278 0.0708974 -0.601 
69 106 97 
-0.428397 0.0707794 -0.6 
70 107 98 
-0.422823 0.0705435 -0.598 
66 108 98 
-0.418677 0.0705435 -0.598 
74 112 108 
-0.415224 0.0706614 -0.599 
63 104 99 
-0.412444 0.0708974 -0.601 
69 105 99 
-0.408957 0.0710153 -0.602 
63 105 95 
-0.404783 0.0710153 -0.602 
68 109 104 
-0.401275 0.0711333 -0.603 
66 107 102 
-0.397094 0.0711333 -0.603 
67 105 99 
-0.393565 0.0712513 -0.604 
70 111 106 
-0.389378 0.0712513 -0.604 
67 108 103 
-0.38519 0.0712513 -0.604 
63 109 102 
-0.381002 0.0712513 -0.604 
64 107 101 
-0.376191 0.0711333 -0.603 
60 98 94 
-0.37201 0.0711333 -0.603 
61 99 97 
-0.36844 0.0712513 -0.604 
71 109 107 
-0.364252 0.0712513 -0.604 
72 110 106 
-0.360065 0.0712513 -0.604 
78 115 106 
-0.355877 0.0712513 -0.604 
71 110 101 
-0.350525 0.0710153 -0.602 
67 109 99 
-0.345776 0.0708974 -0.601 
63 105 95 
-0.340473 0.0706614 -0.599 
69 108 97 
-0.33632 0.0706614 -0.599 
74 113 100 
-0.332167 0.0706614 -0.599 
70 108 104 
-0.328014 0.0706614 -0.599 
67 105 99 
-0.324402 0.0707794 -0.6 
65 106 103 
-0.320242 0.0707794 -0.6 
63 104 99 
-0.317136 0.0710153 -0.602 
59 102 98 
-0.313482 0.0711333 -0.603 
62 100 96 
-0.309814 0.0712513 -0.604 
70 100 94 
-0.306133 0.0713692 -0.605 
68 103 95 
-0.301938 0.0713692 -0.605 
64 100 96 
-0.297744 0.0713692 -0.605 
73 104 102 
-0.293549 0.0713692 -0.605 
70 102 95 
-0.289355 0.0713692 -0.605 
67 102 92 
-0.284689 0.0712513 -0.604 
63 102 93 
-0.279573 0.0710153 -0.602 
62 101 92 
-0.275399 0.0710153 -0.602 
65 101 95 
-0.270775 0.0708974 -0.601 
62 99 88 
-0.267052 0.0710153 -0.602 
60 99 88 
-0.262441 0.0708974 -0.601 
63 104 97 
-0.258274 0.0708974 -0.601 
65 104 95 
-0.25453 0.0710153 -0.602 
61 103 91 
-0.250773 0.0711333 -0.603 
68 110 100 
-0.247001 0.0712513 -0.604 
67 105 99 
-0.242813 0.0712513 -0.604 
69 105 99 
-0.239021 0.0713692 -0.605 
68 103 95 
-0.234438 0.0712513 -0.604 
70 108 102 
-0.22987 0.0711333 -0.603 
75 109 104 
-0.225315 0.0710153 -0.602 
77 109 102 
-0.220774 0.0708974 -0.601 
75 107 100 
-0.216967 0.0710153 -0.602 
73 108 100 
-0.213147 0.0711333 -0.603 
74 113 104 
-0.208967 0.0711333 -0.603 
68 106 100 
-0.204786 0.0711333 -0.603 
70 107 98 
-0.200605 0.0711333 -0.603 
70 108 102 
-0.196425 0.0711333 -0.603 
66 107 100 
-0.191925 0.0710153 -0.602 
66 107 102 
-0.187752 0.0710153 -0.602 
68 109 102 
-0.183578 0.0710153 -0.602 
67 108 103 
-0.179404 0.0710153 -0.602 
71 109 103 
-0.175231 0.0710153 -0.602 
64 103 94 
-0.171057 0.0710153 -0.602 
63 105 95 
-0.16716 0.0711333 -0.603 
62 101 90 
-0.16298 0.0711333 -0.603 
64 103 92 
-0.158799 0.0711333 -0.603 
64 103 92 
-0.154619 0.0711333 -0.603 
61 103 91 
-0.150687 0.0712513 -0.604 
61 100 89 
-0.1465 0.0712513 -0.604 
67 104 93 
-0.142312 0.0712513 -0.604 
69 108 99 
-0.138125 0.0712513 -0.604 
62 104 94 
-0.133716 0.0711333 -0.603 
64 103 94 
-0.12932 0.0710153 -0.602 
67 109 99 
-0.124939 0.0708974 -0.601 
62 105 97 
-0.120772 0.0708974 -0.601 
65 107 97 
-0.116799 0.0710153 -0.602 
67 106 97 
-0.112625 0.0710153 -0.602 
65 103 97 
-0.108632 0.0711333 -0.603 
60 102 92 
-0.104451 0.0711333 -0.603 
63 105 95 
-0.100437 0.0712513 -0.604 
62 104 94 
-0.09609 0.0711333 -0.603 
66 108 96 
-0.0914521 0.0707794 -0.6 
69 111 99 
-0.0867103 0.0703075 -0.596 
53 94 87 
-0.0820241 0.0698357 -0.592 
50 88 82 
-0.0775248 0.0694818 -0.589 
51 93 83 
-0.0730672 0.0691279 -0.586 
35 56 43 
-0.0686512 0.068774 -0.583 
17 27 13 
-0.0644984 0.068656 -0.582 
27 36 18 
-0.0603595 0.068538 -0.581 
19 28 10 
-0.0563314 0.068538 -0.581 
13 23 9 
-0.0524834 0.068774 -0.583 
13 21 8 
-0.0484414 0.068774 -0.583 
13 23 9 
-0.0443995 0.068774 -0.583 
12 22 10 
-0.0403575 0.068774 -0.583 
14 22 9 
-0.0363156 0.068774 -0.583 
14 24 10 
-0.032329 0.0688919 -0.584 
15 23 10 
-0.0282801 0.0688919 -0.584 
32 41 21 
-0.0241897 0.068774 -0.583 
46 61 32 
-0.0201823 0.0688919 -0.584 
25 27 18 
-0.0161887 0.0691279 -0.586 
17 22 8 
-0.012126 0.0691279 -0.586 
21 26 12 
-0.00804944 0.0690099 -0.585 
20 25 13 
-0.0039868 0.0688919 -0.584 
18 26 13 
6.209e-05 0.0688919 -0.584 
21 31 15 
0.00411802 0.0690099 -0.585 
18 28 12 
0.00817383 0.0690099 -0.585 
18 23 11 
0.0122506 0.0691279 -0.586 
18 28 16 
0.0163133 0.0691279 -0.586 
19 27 14 
0.0204108 0.0692458 -0.587 
17 30 13 
0.0244805 0.0692458 -0.587 
16 29 16 
0.0286475 0.0694818 -0.589 
19 29 13 
0.0328977 0.0698357 -0.592 
18 28 12 
0.0370646 0.0699536 -0.593 
19 27 12 
0.0411759 0.0699536 -0.593 
17 27 11 
0.0452108 0.0698357 -0.592 
21 26 12 
0.0493984 0.0699536 -0.593 
18 26 13 
0.0535097 0.0699536 -0.593 
19 29 15 
0.057621 0.0699536 -0.593 
17 27 15 
0.0618364 0.0700716 -0.594 
18 28 16 
0.0659546 0.0700716 -0.594 
19 29 17 
0.0701908 0.0701896 -0.595 
19 29 17 
0.0743159 0.0701896 -0.595 
19 29 15 
0.0787047 0.0704255 -0.597 
20 28 15 
0.0829825 0.0705435 -0.598 
23 31 18 
0.0871285 0.0705435 -0.598 
32 38 21 
0.0911218 0.0704255 -0.597 
31 37 18 
0.0952608 0.0704255 -0.597 
23 32 12 
0.0993998 0.0704255 -0.597 
20 29 11 
0.103539 0.0704255 -0.597 
20 28 13 
0.107497 0.0703075 -0.596 
21 30 12 
0.111255 0.0700716 -0.594 
20 28 13 
0.115179 0.0699536 -0.593 
20 28 15 
0.119491 0.0700716 -0.594 
21 29 16 
0.12361 0.0700716 -0.594 
22 30 15 
0.127943 0.0701896 -0.595 
71 81 67 
0.13229 0.0703075 -0.596 
54 64 39 
0.13688 0.0705435 -0.598 
92 115 107 
0.141497 0.0707794 -0.6 
99 129 121 
0.145657 0.0707794 -0.6 
96 128 119 
0.149817 0.0707794 -0.6 
96 126 118 
0.154234 0.0708974 -0.601 
91 123 114 
0.1584 0.0708974 -0.601 
100 135 125 
0.162297 0.0707794 -0.6 
103 138 128 
0.166456 0.0707794 -0.6 
101 136 126 
0.170332 0.0706614 -0.599 
102 137 125 
0.174776 0.0707794 -0.6 
107 144 131 
0.178936 0.0707794 -0.6 
109 142 127 
0.183096 0.0707794 -0.6 
109 144 134 
0.187255 0.0707794 -0.6 
108 143 133 
0.191415 0.0707794 -0.6 
106 141 131 
0.195575 0.0707794 -0.6 
108 143 131 
0.200068 0.0708974 -0.601 
103 138 126 
0.204234 0.0708974 -0.601 
109 141 130 
0.208401 0.0708974 -0.601 
98 136 130 
0.211861 0.0706614 -0.599 
108 144 138 
0.215653 0.0705435 -0.598 
106 143 134 
0.220166 0.0706614 -0.599 
109 141 134 
0.224319 0.0706614 -0.599 
105 143 137 
0.228854 0.0707794 -0.6 
104 140 134 
0.233013 0.0707794 -0.6 
102 138 132 
0.236778 0.0706614 -0.599 
109 141 134 
0.240931 0.0706614 -0.599 
114 139 132 
0.245493 0.0707794 -0.6 
115 144 141 
0.250069 0.0708974 -0.601 
112 146 143 
0.254658 0.0710153 -0.602 
112 146 143 
0.258832 0.0710153 -0.602 
113 143 137 
0.263006 0.0710153 -0.602 
112 142 134 
0.26718 0.0710153 -0.602 
115 145 137 
0.271353 0.0710153 -0.602 
108 141 126 
0.275069 0.0708974 -0.601 
108 143 131 
0.279236 0.0708974 -0.601 
114 150 144 
0.283403 0.0708974 -0.601 
109 147 143 
0.287569 0.0708974 -0.601 
110 145 137 
0.291251 0.0707794 -0.6 
114 157 151 
0.295411 0.0707794 -0.6 
103 150 147 
0.29957 0.0707794 -0.6 
104 145 138 
0.303224 0.0706614 -0.599 
108 151 145 
0.307377 0.0706614 -0.599 
109 150 145 
0.31205 0.0707794 -0.6 
109 150 145 
0.316737 0.0708974 -0.601 
112 152 152 
0.321437 0.0710153 -0.602 
111 155 160 
0.325611 0.0710153 -0.602 
119 145 143 
0.329237 0.0708974 -0.601 
123 152 149 
0.332849 0.0707794 -0.6 
115 144 143 
0.336447 0.0706614 -0.599 
112 149 138 
0.340031 0.0705435 -0.598 
111 150 141 
0.344753 0.0706614 -0.599 
116 154 150 
0.349488 0.0707794 -0.6 
108 149 146 
0.354237 0.0708974 -0.601 
106 140 137 
0.359 0.0710153 -0.602 
109 152 148 
0.363174 0.0710153 -0.602 
114 160 153 
0.366738 0.0708974 -0.601 
119 150 148 
0.370287 0.0707794 -0.6 
112 146 141 
0.374447 0.0707794 -0.6 
118 154 152 
0.377976 0.0706614 -0.599 
112 150 148 
0.382767 0.0707794 -0.6 
108 151 147 
0.386926 0.0707794 -0.6 
116 150 145 
0.39239 0.0710153 -0.602 
116 147 145 
0.397222 0.0711333 -0.603 
116 147 145 
0.401403 0.0711333 -0.603 
116 147 145 
0.405584 0.0711333 -0.603 
116 147 145 
0.409085 0.0710153 -0.602 
116 147 145 
0.412572 0.0708974 -0.601 
118 154 150 
0.416739 0.0708974 -0.601 
118 154 150 
0.420905 0.0708974 -0.601 
118 154 150 
0.425072 0.0708974 -0.601 
118 154 150 
0.429239 0.0708974 -0.601 
118 154 150 
0.433406 0.0708974 -0.601 
118 154 150 
0.437572 0.0708974 -0.601 
118 154 150 
0.441004 0.0707794 -0.6 
118 154 150 
0.445164 0.0707794 -0.6 
118 154 150 
0.448575 0.0706614 -0.599 
118 154 150 
0.451972 0.0705435 -0.598 
118 154 150 
0.455355 0.0704255 -0.597 
118 154 150 
0.460264 0.0705435 -0.598 
118 154 150 
0.465186 0.0706614 -0.599 
118 154 150 
0.470123 0.0707794 -0.6 
118 154 150 
0.472702 0.0705435 -0.598 
118 154 150 
0.47605 0.0704255 -0.597 
118 154 150 
0.479385 0.0703075 -0.596 
118 154 150 
0.483517 0.0703075 -0.596 
118 154 150 
0.487649 0.0703075 -0.596 
118 154 150 
0.493431 0.0705435 -0.598 
118 154 150 
0.498409 0.0706614 -0.599 
118 154 150 
0.503401 0.0707794 -0.6 
118 154 150 
0.506715 0.0706614 -0.599 
118 154 150 
0.510015 0.0705435 -0.598 
118 154 150 
0.514161 0.0705435 -0.598 
118 154 150 
0.519174 0.0706614 -0.599 
118 154 150 
0.5242 0.0707794 -0.6 
118 154 150 
0.52836 0.0707794 -0.6 
118 154 150 
0.533408 0.0708974 -0.601 
118 154 150 
0.53668 0.0707794 -0.6 
118 154 150 
0.54084 0.0707794 -0.6 
118 154 150 
0.543183 0.0705435 -0.598 
118 154 150 
0.546413 0.0704255 -0.597 
118 154 150 
0.550552 0.0704255 -0.597 
118 154 150 
0.553762 0.0703075 -0.596 
118 154 150 
0.556022 0.0700716 -0.594 
118 154 150 
0.559198 0.0699536 -0.593 
118 154 150 
0.563309 0.0699536 -0.593 
118 154 150 
0.568377 0.0700716 -0.594 
118 154 150 
0.573459 0.0701896 -0.595 
113 151 147 
0.577584 0.0701896 -0.595 
113 151 147 
0.581709 0.0701896 -0.595 
113 151 147 
-0.433278 0.0667306 -0.601 
65 106 99 
-0.428397 0.0666196 -0.6 
65 107 106 
-0.424237 0.0666196 -0.6 
70 106 102 
-0.420077 0.0666196 -0.6 
69 107 101 
-0.416611 0.0667306 -0.601 
78 107 106 
-0.412444 0.0667306 -0.601 
78 104 102 
-0.408277 0.0667306 -0.601 
62 104 103 
-0.404783 0.0668416 -0.602 
72 104 95 
-0.400609 0.0668416 -0.602 
74 106 95 
-0.396436 0.0668416 -0.602 
68 102 97 
-0.392262 0.0668416 -0.602 
70 106 100 
-0.388733 0.0669527 -0.603 
66 109 105 
-0.38519 0.0670637 -0.604 
65 108 104 
-0.381002 0.0670637 -0.604 
62 103 100 
-0.376191 0.0669527 -0.603 
63 101 99 
-0.37201 0.0669527 -0.603 
65 102 103 
-0.36783 0.0669527 -0.603 
74 116 106 
-0.364252 0.0670637 -0.604 
78 117 108 
-0.360065 0.0670637 -0.604 
71 110 101 
-0.355877 0.0670637 -0.604 
76 114 110 
-0.351107 0.0669527 -0.603 
68 106 100 
-0.345201 0.0666196 -0.6 
71 106 94 
-0.339904 0.0663975 -0.598 
70 108 102 
-0.335758 0.0663975 -0.598 
82 109 100 
-0.331612 0.0663975 -0.598 
73 105 94 
-0.328014 0.0665085 -0.599 
71 106 96 
-0.324402 0.0666196 -0.6 
70 111 106 
-0.320776 0.0667306 -0.601 
71 107 103 
-0.316609 0.0667306 -0.601 
63 104 101 
-0.312962 0.0668416 -0.602 
66 102 98 
-0.308788 0.0668416 -0.602 
63 101 97 
-0.305121 0.0669527 -0.603 
67 105 101 
-0.301439 0.0670637 -0.604 
65 103 97 
-0.297744 0.0671747 -0.605 
67 108 101 
-0.293549 0.0671747 -0.605 
68 106 100 
-0.289355 0.0671747 -0.605 
67 104 93 
-0.284689 0.0670637 -0.604 
62 103 100 
-0.280037 0.0669527 -0.603 
56 95 84 
-0.275856 0.0669527 -0.603 
61 102 95 
-0.271676 0.0669527 -0.603 
63 101 95 
-0.267495 0.0669527 -0.603 
63 101 95 
-0.263315 0.0669527 -0.603 
67 106 97 
-0.259134 0.0669527 -0.603 
62 99 90 
-0.254953 0.0669527 -0.603 
62 100 94 
-0.250773 0.0669527 -0.603 
63 101 95 
-0.246592 0.0669527 -0.603 
62 103 96 
-0.242813 0.0670637 -0.604 
70 109 100 
-0.239021 0.0671747 -0.605 
70 112 102 
-0.234438 0.0670637 -0.604 
66 107 100 
-0.22987 0.0669527 -0.603 
73 114 109 
-0.225315 0.0668416 -0.602 
65 108 102 
-0.221141 0.0668416 -0.602 
70 111 104 
-0.216607 0.0667306 -0.601 
74 115 108 
-0.21244 0.0667306 -0.601 
69 107 103 
-0.208273 0.0667306 -0.601 
66 109 101 
-0.204107 0.0667306 -0.601 
68 109 102 
-0.19994 0.0667306 -0.601 
67 108 101 
-0.195773 0.0667306 -0.601 
69 107 101 
-0.191925 0.0668416 -0.602 
70 108 102 
-0.187752 0.0668416 -0.602 
69 105 99 
-0.183578 0.0668416 -0.602 
70 108 102 
-0.179404 0.0668416 -0.602 
69 107 101 
-0.175231 0.0668416 -0.602 
67 105 99 
-0.171057 0.0668416 -0.602 
65 109 98 
-0.16716 0.0669527 -0.603 
66 109 101 
-0.16271 0.0668416 -0.602 
59 105 98 
-0.158536 0.0668416 -0.602 
65 108 100 
-0.154619 0.0669527 -0.603 
65 102 93 
-0.150438 0.0669527 -0.603 
61 96 86 
-0.146257 0.0669527 -0.603 
65 102 93 
-0.141841 0.0668416 -0.602 
62 100 94 
-0.137667 0.0668416 -0.602 
64 102 96 
-0.133494 0.0668416 -0.602 
64 102 96 
-0.12932 0.0668416 -0.602 
69 105 99 
-0.124939 0.0667306 -0.601 
65 106 99 
-0.120772 0.0667306 -0.601 
67 109 99 
-0.116799 0.0668416 -0.602 
71 110 101 
-0.112625 0.0668416 -0.602 
65 107 95 
-0.108632 0.0669527 -0.603 
66 108 96 
-0.104451 0.0669527 -0.603 
67 111 100 
-0.100271 0.0669527 -0.603 
67 110 102 
-0.0959306 0.0668416 -0.602 
66 112 105 
-0.0914521 0.0666196 -0.6 
63 109 102 
-0.0867103 0.0661754 -0.596 
52 98 89 
-0.0818855 0.0656203 -0.591 
52 93 86 
-0.0773932 0.0652872 -0.588 
48 90 80 
-0.0729425 0.0649541 -0.585 
30 50 45 
-0.068769 0.0648431 -0.584 
19 30 9 
-0.0646093 0.064732 -0.583 
26 38 14 
-0.0604634 0.064621 -0.582 
22 27 13 
-0.0564284 0.064621 -0.582 
16 24 13 
-0.0524834 0.064732 -0.583 
14 22 9 
-0.0484414 0.064732 -0.583 
13 23 9 
-0.0443995 0.064732 -0.583 
12 21 12 
-0.0403575 0.064732 -0.583 
15 23 10 
-0.0363156 0.064732 -0.583 
14 24 10 
-0.032329 0.0648431 -0.584 
31 42 21 
-0.0283285 0.0649541 -0.585 
36 50 28 
-0.0243142 0.0650651 -0.586 
17 27 11 
-0.020286 0.0651762 -0.587 
19 27 14 
-0.0162163 0.0651762 -0.587 
15 25 13 
-0.0121466 0.0651762 -0.587 
18 28 12 
-0.00807696 0.0651762 -0.587 
