ply
format ascii 1.0
comment pointcloud saved from Realsense Viewer
element vertex 2399
property float32 x
property float32 y
property float32 z
property uchar red
property uchar green
property uchar blue
end_header
0.526193 0.0929052 -0.558 
121 162 155 
0.530061 0.0929052 -0.558 
121 162 155 
0.532973 0.0927387 -0.557 
121 162 155 
0.535871 0.0925722 -0.556 
121 162 155 
0.539726 0.0925722 -0.556 
118 161 153 
0.54358 0.0925722 -0.556 
118 161 153 
-0.407324 0.0901535 -0.565 
89 127 125 
-0.404121 0.0903131 -0.566 
93 124 120 
-0.400904 0.0904727 -0.567 
82 130 122 
-0.397673 0.0906322 -0.568 
88 129 122 
-0.393042 0.0904727 -0.567 
86 129 125 
-0.389111 0.0904727 -0.567 
89 130 125 
-0.38518 0.0904727 -0.567 
84 125 122 
-0.380577 0.0903131 -0.566 
88 129 126 
-0.376653 0.0903131 -0.566 
84 125 122 
-0.372728 0.0903131 -0.566 
86 132 125 
-0.368804 0.0903131 -0.566 
85 130 128 
-0.364236 0.0901535 -0.565 
89 129 129 
-0.360318 0.0901535 -0.565 
90 131 126 
-0.35577 0.089994 -0.564 
94 128 123 
-0.35186 0.089994 -0.564 
86 127 122 
-0.348567 0.0901535 -0.565 
81 127 122 
-0.34526 0.0903131 -0.566 
83 124 119 
-0.341336 0.0903131 -0.566 
79 122 118 
-0.337412 0.0903131 -0.566 
79 122 116 
-0.333488 0.0903131 -0.566 
82 120 116 
-0.328981 0.0901535 -0.565 
74 115 110 
-0.325064 0.0901535 -0.565 
85 121 115 
-0.320578 0.089994 -0.564 
86 121 113 
-0.316668 0.089994 -0.564 
85 121 115 
-0.313313 0.0901535 -0.565 
75 113 107 
-0.309943 0.0903131 -0.566 
82 116 113 
-0.306019 0.0903131 -0.566 
81 113 92 
-0.302629 0.0904727 -0.567 
78 113 101 
-0.298698 0.0904727 -0.567 
82 114 105 
-0.295286 0.0906322 -0.568 
77 113 97 
-0.290835 0.0904727 -0.567 
78 116 99 
-0.286398 0.0903131 -0.566 
86 110 98 
-0.282474 0.0903131 -0.566 
79 118 105 
-0.278058 0.0901535 -0.565 
79 120 115 
-0.274141 0.0901535 -0.565 
80 118 99 
-0.269746 0.089994 -0.564 
76 114 97 
-0.265835 0.089994 -0.564 
74 117 111 
-0.261461 0.0898344 -0.563 
75 118 110 
-0.257557 0.0898344 -0.563 
76 114 110 
-0.253654 0.0898344 -0.563 
75 113 109 
-0.249751 0.0898344 -0.563 
77 123 116 
-0.245848 0.0898344 -0.563 
75 123 113 
-0.241944 0.0898344 -0.563 
63 114 107 
-0.238464 0.089994 -0.564 
66 118 114 
-0.234969 0.0901535 -0.565 
79 106 101 
-0.231052 0.0901535 -0.565 
82 114 107 
-0.227135 0.0901535 -0.565 
82 117 109 
-0.223218 0.0901535 -0.565 
72 111 100 
-0.219301 0.0901535 -0.565 
70 109 100 
-0.215384 0.0901535 -0.565 
80 121 118 
-0.211466 0.0901535 -0.565 
71 114 110 
-0.207917 0.0903131 -0.566 
74 111 98 
-0.203632 0.0901535 -0.565 
79 111 100 
-0.199715 0.0901535 -0.565 
74 109 97 
-0.196144 0.0903131 -0.566 
78 115 104 
-0.1929 0.0906322 -0.568 
72 111 102 
-0.189294 0.0907918 -0.569 
75 114 101 
-0.185349 0.0907918 -0.569 
85 115 107 
-0.181086 0.0906322 -0.568 
78 113 105 
-0.176524 0.0903131 -0.566 
78 113 103 
-0.172295 0.0901535 -0.565 
77 119 109 
-0.16808 0.089994 -0.564 
79 116 105 
-0.164169 0.089994 -0.564 
77 116 107 
-0.160259 0.089994 -0.564 
84 123 112 
-0.156349 0.089994 -0.564 
79 114 102 
-0.152439 0.089994 -0.564 
83 120 107 
-0.148529 0.089994 -0.564 
89 124 112 
-0.144618 0.089994 -0.564 
86 121 109 
-0.140708 0.089994 -0.564 
86 121 111 
-0.136798 0.089994 -0.564 
84 119 111 
-0.133123 0.0901535 -0.565 
86 123 114 
-0.129206 0.0901535 -0.565 
81 120 111 
-0.125511 0.0903131 -0.566 
81 117 111 
-0.121801 0.0904727 -0.567 
83 120 109 
-0.117663 0.0903131 -0.566 
77 116 103 
-0.113738 0.0903131 -0.566 
78 122 109 
-0.109814 0.0903131 -0.566 
81 121 104 
-0.10589 0.0903131 -0.566 
84 126 116 
-0.101966 0.0903131 -0.566 
81 123 113 
-0.0980421 0.0903131 -0.566 
76 119 111 
-0.094118 0.0903131 -0.566 
74 121 107 
-0.0900346 0.0901535 -0.565 
76 120 109 
-0.0861174 0.0901535 -0.565 
75 119 106 
-0.0820548 0.089994 -0.564 
75 117 103 
-0.0781445 0.089994 -0.564 
72 114 100 
-0.0742343 0.089994 -0.564 
79 121 107 
-0.0703241 0.089994 -0.564 
73 119 112 
-0.0664139 0.089994 -0.564 
67 118 107 
-0.0625036 0.089994 -0.564 
73 116 108 
-0.0585934 0.089994 -0.564 
70 116 109 
-0.0546832 0.089994 -0.564 
73 121 111 
-0.050863 0.0901535 -0.565 
66 117 106 
-0.0469458 0.0901535 -0.565 
72 121 108 
-0.0431048 0.0903131 -0.566 
73 120 106 
-0.0391807 0.0903131 -0.566 
72 121 108 
-0.0352566 0.0903131 -0.566 
76 125 112 
-0.0313326 0.0903131 -0.566 
77 128 117 
-0.02736 0.0901535 -0.565 
77 128 119 
-0.0234014 0.089994 -0.564 
78 124 115 
-0.0194566 0.0898344 -0.563 
79 127 121 
-0.0155533 0.0898344 -0.563 
76 124 116 
-0.0116707 0.089994 -0.564 
79 127 117 
-0.00776049 0.089994 -0.564 
76 124 114 
-0.00384343 0.0898344 -0.563 
77 124 112 
5.9751e-05 0.0896749 -0.562 
79 126 114 
0.00395611 0.0896749 -0.562 
79 127 119 
0.00785247 0.0896749 -0.562 
80 124 113 
0.0117488 0.0896749 -0.562 
84 126 116 
0.0156452 0.0896749 -0.562 
87 131 120 
0.0195415 0.0896749 -0.562 
79 132 123 
0.0234379 0.0896749 -0.562 
81 134 125 
0.0273343 0.0896749 -0.562 
83 132 119 
0.0312862 0.0898344 -0.563 
90 133 125 
0.035252 0.089994 -0.564 
81 132 121 
0.0391622 0.089994 -0.564 
89 137 127 
0.0430724 0.089994 -0.564 
83 129 120 
0.0468994 0.0898344 -0.563 
89 133 122 
0.0508027 0.0898344 -0.563 
90 137 123 
0.0546088 0.0896749 -0.562 
94 136 126 
0.058401 0.0895153 -0.561 
95 137 125 
0.0621794 0.0893557 -0.56 
87 131 120 
0.0659439 0.0891962 -0.559 
87 135 127 
0.0696946 0.0890366 -0.558 
90 131 124 
0.0735632 0.0890366 -0.558 
92 135 131 
0.0774319 0.0890366 -0.558 
93 139 134 
0.0817376 0.0895153 -0.561 
98 144 135 
0.0857797 0.0896749 -0.562 
95 136 129 
0.089676 0.0896749 -0.562 
94 136 124 
0.0934059 0.0895153 -0.561 
103 147 132 
0.0971219 0.0893557 -0.56 
104 148 137 
0.101185 0.0895153 -0.561 
103 145 135 
0.105074 0.0895153 -0.561 
104 146 136 
0.108964 0.0895153 -0.561 
104 146 136 
0.112853 0.0895153 -0.561 
105 144 135 
0.116534 0.0893557 -0.56 
105 146 139 
0.120202 0.0891962 -0.559 
102 143 136 
0.124077 0.0891962 -0.559 
106 144 138 
0.127724 0.0890366 -0.558 
105 146 139 
0.131593 0.0890366 -0.558 
105 146 139 
0.135461 0.0890366 -0.558 
102 148 139 
0.13933 0.0890366 -0.558 
112 149 138 
0.143199 0.0890366 -0.558 
109 147 141 
0.147067 0.0890366 -0.558 
103 142 133 
0.150936 0.0890366 -0.558 
109 151 139 
0.154804 0.0890366 -0.558 
108 150 138 
0.158673 0.0890366 -0.558 
103 145 133 
0.162542 0.0890366 -0.558 
109 148 137 
0.16641 0.0890366 -0.558 
113 150 139 
0.170279 0.0890366 -0.558 
119 154 146 
0.174148 0.0890366 -0.558 
110 152 142 
0.178016 0.0890366 -0.558 
116 151 141 
0.181885 0.0890366 -0.558 
115 152 143 
0.186086 0.0891962 -0.559 
114 151 142 
0.189622 0.0890366 -0.558 
116 154 150 
0.193491 0.0890366 -0.558 
122 163 158 
0.197006 0.088877 -0.557 
116 157 152 
0.200867 0.088877 -0.557 
112 154 144 
0.204729 0.088877 -0.557 
110 153 145 
0.208591 0.088877 -0.557 
110 151 144 
0.212452 0.088877 -0.557 
117 151 146 
0.216314 0.088877 -0.557 
113 151 145 
0.220176 0.088877 -0.557 
111 150 141 
0.224037 0.088877 -0.557 
117 152 142 
0.227899 0.088877 -0.557 
113 148 140 
0.232177 0.0890366 -0.558 
123 157 152 
0.236046 0.0890366 -0.558 
120 156 152 
0.240344 0.0891962 -0.559 
118 161 157 
0.24422 0.0891962 -0.559 
114 156 146 
0.248095 0.0891962 -0.559 
116 158 148 
0.25152 0.0890366 -0.558 
108 157 144 
0.254931 0.088877 -0.557 
115 156 151 
0.258328 0.0887175 -0.556 
119 165 160 
0.262183 0.0887175 -0.556 
116 154 148 
0.266038 0.0887175 -0.556 
119 155 151 
0.269892 0.0887175 -0.556 
121 162 155 
0.274239 0.088877 -0.557 
119 157 153 
0.278101 0.088877 -0.557 
120 166 161 
0.282469 0.0890366 -0.558 
116 160 149 
0.286338 0.0890366 -0.558 
118 161 155 
0.290726 0.0891962 -0.559 
130 172 171 
0.294602 0.0891962 -0.559 
111 162 153 
0.297944 0.0890366 -0.558 
118 161 157 
0.301271 0.088877 -0.557 
121 163 162 
0.304585 0.0887175 -0.556 
110 164 159 
0.30844 0.0887175 -0.556 
120 171 164 
0.312856 0.088877 -0.557 
108 165 159 
0.317287 0.0890366 -0.558 
115 169 166 
0.321731 0.0891962 -0.559 
118 165 164 
0.325024 0.0890366 -0.558 
125 165 167 
0.328303 0.088877 -0.557 
111 155 160 
0.330376 0.0883983 -0.554 
133 169 167 
0.333613 0.0882388 -0.553 
120 155 147 
0.336837 0.0880792 -0.552 
119 155 149 
0.340664 0.0880792 -0.552 
118 158 160 
0.345739 0.0883983 -0.554 
116 159 153 
0.351473 0.088877 -0.557 
121 171 169 
0.355973 0.0890366 -0.558 
124 164 166 
0.360487 0.0891962 -0.559 
117 168 159 
0.364362 0.0891962 -0.559 
117 168 159 
0.367579 0.0890366 -0.558 
117 168 159 
0.371448 0.0890366 -0.558 
117 168 159 
0.375316 0.0890366 -0.558 
117 168 159 
0.379185 0.0890366 -0.558 
117 168 159 
0.383053 0.0890366 -0.558 
117 168 159 
0.386922 0.0890366 -0.558 
117 168 159 
0.390791 0.0890366 -0.558 
117 168 159 
0.395367 0.0891962 -0.559 
117 168 159 
0.399956 0.0893557 -0.56 
117 168 159 
0.403839 0.0893557 -0.56 
117 168 159 
0.407721 0.0893557 -0.56 
117 168 159 
0.410869 0.0891962 -0.559 
117 168 159 
0.414744 0.0891962 -0.559 
117 168 159 
0.417871 0.0890366 -0.558 
117 168 159 
0.420984 0.088877 -0.557 
117 168 159 
0.424083 0.0887175 -0.556 
117 168 159 
0.426398 0.0883983 -0.554 
117 168 159 
0.430239 0.0883983 -0.554 
117 168 159 
0.43408 0.0883983 -0.554 
117 168 159 
0.438711 0.0885579 -0.555 
117 168 159 
0.444154 0.088877 -0.557 
117 168 159 
0.448016 0.088877 -0.557 
117 168 159 
0.451877 0.088877 -0.557 
117 168 159 
0.454921 0.0887175 -0.556 
117 168 159 
0.458776 0.0887175 -0.556 
117 168 159 
0.463463 0.088877 -0.557 
117 168 159 
0.467324 0.088877 -0.557 
117 168 159 
0.471186 0.088877 -0.557 
117 168 159 
0.474195 0.0887175 -0.556 
117 168 159 
0.478049 0.0887175 -0.556 
117 168 159 
0.481037 0.0885579 -0.555 
117 168 159 
0.484012 0.0883983 -0.554 
117 168 159 
0.486972 0.0882388 -0.553 
117 168 159 
0.489918 0.0880792 -0.552 
118 169 162 
0.493745 0.0880792 -0.552 
118 169 162 
0.498474 0.0882388 -0.553 
118 169 162 
0.502308 0.0882388 -0.553 
118 169 162 
0.506142 0.0882388 -0.553 
118 169 162 
0.510898 0.0883983 -0.554 
118 169 162 
0.517526 0.088877 -0.557 
118 169 162 
0.522324 0.0890366 -0.558 
118 169 162 
0.526193 0.0890366 -0.558 
118 169 162 
0.529111 0.088877 -0.557 
118 169 162 
0.532016 0.0887175 -0.556 
118 169 162 
0.533943 0.0883983 -0.554 
118 169 162 
0.537784 0.0883983 -0.554 
118 169 162 
0.541625 0.0883983 -0.554 
118 169 162 
-0.408045 0.086389 -0.566 
84 123 128 
-0.404121 0.086389 -0.566 
84 124 124 
-0.400197 0.086389 -0.566 
90 126 122 
-0.396973 0.0865416 -0.567 
93 128 118 
-0.393042 0.0865416 -0.567 
86 124 118 
-0.389111 0.0865416 -0.567 
97 128 124 
-0.38518 0.0865416 -0.567 
91 125 122 
-0.381249 0.0865416 -0.567 
93 131 127 
-0.376653 0.086389 -0.566 
89 124 116 
-0.372728 0.086389 -0.566 
91 128 119 
-0.368153 0.0862364 -0.565 
87 132 132 
-0.363591 0.0860837 -0.564 
89 131 130 
-0.359681 0.0860837 -0.564 
84 131 128 
-0.35577 0.0860837 -0.564 
83 120 111 
-0.35186 0.0860837 -0.564 
89 124 116 
-0.34795 0.0860837 -0.564 
72 114 100 
-0.34404 0.0860837 -0.564 
87 124 115 
-0.340733 0.0862364 -0.565 
77 118 113 
-0.336816 0.0862364 -0.565 
79 122 104 
-0.332898 0.0862364 -0.565 
86 128 116 
-0.329563 0.086389 -0.566 
83 122 109 
-0.325064 0.0862364 -0.565 
77 119 107 
-0.321715 0.086389 -0.566 
75 118 112 
-0.317791 0.086389 -0.566 
76 119 115 
-0.314422 0.0865416 -0.567 
74 117 111 
-0.310491 0.0865416 -0.567 
78 112 109 
-0.3071 0.0866943 -0.568 
77 107 99 
-0.303696 0.0868469 -0.569 
79 106 97 
-0.299751 0.0868469 -0.569 
77 112 102 
-0.295286 0.0866943 -0.568 
77 112 102 
-0.290835 0.0865416 -0.567 
81 113 102 
-0.286904 0.0865416 -0.567 
83 111 98 
-0.282474 0.086389 -0.566 
81 117 101 
-0.27855 0.086389 -0.566 
81 116 106 
-0.274141 0.0862364 -0.565 
89 121 112 
-0.270224 0.0862364 -0.565 
83 120 109 
-0.265835 0.0860837 -0.564 
74 112 106 
-0.261925 0.0860837 -0.564 
79 116 107 
-0.257557 0.0859311 -0.563 
79 116 107 
-0.253654 0.0859311 -0.563 
78 113 103 
-0.249751 0.0859311 -0.563 
84 119 111 
-0.245411 0.0857785 -0.562 
79 114 106 
-0.241944 0.0859311 -0.563 
72 110 104 
-0.238464 0.0860837 -0.564 
76 117 112 
-0.234554 0.0860837 -0.564 
68 103 91 
-0.231052 0.0862364 -0.565 
79 114 102 
-0.227135 0.0862364 -0.565 
79 116 105 
-0.223218 0.0862364 -0.565 
75 110 100 
-0.219689 0.086389 -0.566 
78 113 103 
-0.215765 0.086389 -0.566 
80 115 103 
-0.211841 0.086389 -0.566 
72 109 96 
-0.207917 0.086389 -0.566 
83 114 100 
-0.203993 0.086389 -0.566 
79 116 103 
-0.199715 0.0862364 -0.565 
82 114 103 
-0.196144 0.086389 -0.566 
75 119 106 
-0.19256 0.0865416 -0.567 
69 113 102 
-0.188629 0.0865416 -0.567 
83 120 107 
-0.184698 0.0865416 -0.567 
84 121 110 
-0.180767 0.0865416 -0.567 
81 118 107 
-0.176524 0.086389 -0.566 
80 115 103 
-0.172295 0.0862364 -0.565 
79 118 109 
-0.16808 0.0860837 -0.564 
84 121 112 
-0.164169 0.0860837 -0.564 
84 116 107 
-0.160259 0.0860837 -0.564 
78 114 98 
-0.156349 0.0860837 -0.564 
79 114 102 
-0.152439 0.0860837 -0.564 
80 122 112 
-0.148529 0.0860837 -0.564 
80 122 110 
-0.144618 0.0860837 -0.564 
77 119 109 
-0.140708 0.0860837 -0.564 
77 119 109 
-0.136798 0.0860837 -0.564 
81 120 111 
-0.132888 0.0860837 -0.564 
81 120 109 
-0.129206 0.0862364 -0.565 
79 121 111 
-0.125289 0.0862364 -0.565 
82 121 112 
-0.121587 0.086389 -0.566 
83 120 109 
-0.117455 0.0862364 -0.565 
79 116 105 
-0.113337 0.0860837 -0.564 
76 115 106 
-0.109426 0.0860837 -0.564 
79 121 111 
-0.105703 0.0862364 -0.565 
80 123 117 
-0.101786 0.0862364 -0.565 
79 120 113 
-0.0980421 0.086389 -0.566 
81 123 113 
-0.094118 0.086389 -0.566 
77 119 109 
-0.0900346 0.0862364 -0.565 
79 123 112 
-0.0861174 0.0862364 -0.565 
76 118 106 
-0.0820548 0.0860837 -0.564 
81 120 109 
-0.0781445 0.0860837 -0.564 
77 119 107 
-0.0742343 0.0860837 -0.564 
80 124 111 
-0.0703241 0.0860837 -0.564 
80 126 117 
-0.0664139 0.0860837 -0.564 
73 125 111 
-0.0625036 0.0860837 -0.564 
69 123 109 
-0.0585934 0.0860837 -0.564 
73 120 106 
-0.0546832 0.0860837 -0.564 
75 123 113 
-0.050863 0.0862364 -0.565 
66 117 106 
-0.0469458 0.0862364 -0.565 
73 117 104 
-0.0431048 0.086389 -0.566 
76 120 109 
-0.0391807 0.086389 -0.566 
79 126 114 
-0.0352566 0.086389 -0.566 
80 126 117 
-0.0313326 0.086389 -0.566 
84 132 124 
-0.0274085 0.086389 -0.566 
76 127 118 
-0.0234429 0.0862364 -0.565 
78 126 116 
-0.0194912 0.0860837 -0.564 
82 130 122 
-0.0155809 0.0860837 -0.564 
75 126 115 
-0.0116707 0.0860837 -0.564 
76 129 120 
-0.00776049 0.0860837 -0.564 
76 127 118 
-0.00385026 0.0860837 -0.564 
82 132 128 
5.98573e-05 0.0859311 -0.563 
79 127 121 
0.00395611 0.0857785 -0.562 
77 128 119 
0.00785247 0.0857785 -0.562 
80 124 113 
0.0117697 0.0859311 -0.563 
90 127 118 
0.0156452 0.0857785 -0.562 
89 128 119 
0.0195415 0.0857785 -0.562 
92 135 127 
0.0234379 0.0857785 -0.562 
80 126 117 
0.0273343 0.0857785 -0.562 
90 133 125 
0.0312306 0.0857785 -0.562 
90 136 127 
0.0351895 0.0859311 -0.563 
88 134 125 
0.0390928 0.0859311 -0.563 
88 131 123 
0.0429197 0.0857785 -0.562 
94 137 129 
0.0467328 0.0856259 -0.561 
94 140 131 
0.0505319 0.0854732 -0.56 
92 139 127 
0.0544144 0.0854732 -0.56 
91 138 124 
0.0582969 0.0854732 -0.56 
88 131 123 
0.0621794 0.0854732 -0.56 
90 136 129 
0.0660619 0.0854732 -0.56 
91 137 128 
0.0699444 0.0854732 -0.56 
93 136 128 
0.0736951 0.0853206 -0.559 
104 152 144 
0.0775706 0.0853206 -0.559 
91 140 127 
0.0815919 0.0854732 -0.56 
100 137 126 
0.0857797 0.0857785 -0.562 
97 134 125 
0.089676 0.0857785 -0.562 
98 137 126 
0.0932394 0.0854732 -0.56 
107 148 141 
0.0971219 0.0854732 -0.56 
110 151 146 
0.101185 0.0856259 -0.561 
104 145 140 
0.105261 0.0857785 -0.562 
106 144 138 
0.109158 0.0857785 -0.562 
104 146 136 
0.112853 0.0856259 -0.561 
103 142 129 
0.116534 0.0854732 -0.56 
104 143 132 
0.120202 0.0853206 -0.559 
103 145 133 
0.123855 0.085168 -0.558 
106 145 132 
0.127724 0.085168 -0.558 
105 147 135 
0.131593 0.085168 -0.558 
107 144 133 
0.135461 0.085168 -0.558 
112 148 142 
0.13933 0.085168 -0.558 
102 143 136 
0.143455 0.0853206 -0.559 
105 146 139 
0.147331 0.0853206 -0.559 
110 144 139 
0.151206 0.0853206 -0.559 
107 144 135 
0.154804 0.085168 -0.558 
108 150 140 
0.158673 0.085168 -0.558 
110 153 145 
0.162542 0.085168 -0.558 
114 151 142 
0.16641 0.085168 -0.558 
112 151 142 
0.170279 0.085168 -0.558 
111 153 143 
0.174148 0.085168 -0.558 
114 155 152 
0.178016 0.085168 -0.558 
113 161 155 
0.181885 0.085168 -0.558 
114 158 147 
0.185753 0.085168 -0.558 
112 151 140 
0.189622 0.085168 -0.558 
118 155 146 
0.193491 0.085168 -0.558 
113 156 150 
0.197359 0.085168 -0.558 
110 153 147 
0.200867 0.0850153 -0.557 
111 161 157 
0.204729 0.0850153 -0.557 
115 162 159 
0.208965 0.085168 -0.558 
111 149 143 
0.212834 0.085168 -0.558 
110 153 147 
0.216314 0.0850153 -0.557 
109 155 146 
0.220176 0.0850153 -0.557 
114 151 140 
0.223635 0.0848627 -0.556 
117 152 140 
0.22749 0.0848627 -0.556 
114 151 142 
0.231761 0.0850153 -0.557 
120 158 152 
0.235623 0.0850153 -0.557 
120 156 152 
0.239914 0.085168 -0.558 
116 154 152 
0.24422 0.0853206 -0.559 
113 151 147 
0.248095 0.0853206 -0.559 
116 158 157 
0.251971 0.0853206 -0.559 
113 156 152 
0.255846 0.0853206 -0.559 
115 158 152 
0.259257 0.085168 -0.558 
115 156 153 
0.263126 0.085168 -0.558 
117 159 149 
0.266516 0.0850153 -0.557 
121 160 151 
0.270378 0.0850153 -0.557 
120 156 150 
0.273747 0.0848627 -0.556 
122 163 158 
0.277602 0.0848627 -0.556 
116 161 159 
0.281963 0.0850153 -0.557 
118 166 160 
0.286338 0.085168 -0.558 
117 157 157 
0.290206 0.085168 -0.558 
120 162 161 
0.294075 0.085168 -0.558 
112 162 160 
0.297944 0.085168 -0.558 
115 157 156 
0.301812 0.085168 -0.558 
120 157 158 
0.305133 0.0850153 -0.557 
116 161 161 
0.30844 0.0848627 -0.556 
117 159 158 
0.312856 0.0850153 -0.557 
115 160 158 
0.317287 0.085168 -0.558 
126 162 160 
0.321155 0.085168 -0.558 
124 162 160 
0.324442 0.0850153 -0.557 
122 169 166 
0.327124 0.0847101 -0.555 
122 168 161 
0.330376 0.0845574 -0.554 
100 159 152 
0.333613 0.0844048 -0.553 
124 162 160 
0.338058 0.0845574 -0.554 
116 152 158 
0.342516 0.0847101 -0.555 
119 159 161 
0.346988 0.0848627 -0.556 
118 158 158 
0.352104 0.085168 -0.558 
123 166 162 
0.355973 0.085168 -0.558 
113 163 161 
0.360487 0.0853206 -0.559 
120 165 165 
0.36371 0.085168 -0.558 
122 167 167 
0.367579 0.085168 -0.558 
122 167 167 
0.371448 0.085168 -0.558 
122 167 167 
0.375316 0.085168 -0.558 
122 167 167 
0.379185 0.085168 -0.558 
122 167 167 
0.383053 0.085168 -0.558 
122 167 167 
0.386922 0.085168 -0.558 
122 167 167 
0.390791 0.085168 -0.558 
122 167 167 
0.395367 0.0853206 -0.559 
122 167 167 
0.399242 0.0853206 -0.559 
122 167 167 
0.403118 0.0853206 -0.559 
122 167 167 
0.406265 0.085168 -0.558 
122 167 167 
0.410134 0.085168 -0.558 
122 167 167 
0.414002 0.085168 -0.558 
122 167 167 
0.417122 0.0850153 -0.557 
122 167 167 
0.420228 0.0848627 -0.556 
122 167 167 
0.42332 0.0847101 -0.555 
122 167 167 
0.426398 0.0845574 -0.554 
122 167 167 
0.430239 0.0845574 -0.554 
122 167 167 
0.43408 0.0845574 -0.554 
122 167 167 
0.437921 0.0845574 -0.554 
122 167 167 
0.443357 0.0848627 -0.556 
122 167 167 
0.448016 0.0850153 -0.557 
118 163 161 
0.451066 0.0848627 -0.556 
118 163 161 
0.454103 0.0847101 -0.555 
118 163 161 
0.457951 0.0847101 -0.555 
118 163 161 
0.461798 0.0847101 -0.555 
118 163 161 
0.464807 0.0845574 -0.554 
118 163 161 
0.468648 0.0845574 -0.554 
118 163 161 
0.472489 0.0845574 -0.554 
118 163 161 
0.47719 0.0847101 -0.555 
118 163 161 
0.481904 0.0848627 -0.556 
118 163 161 
0.484885 0.0847101 -0.555 
118 163 161 
0.487853 0.0845574 -0.554 
118 163 161 
0.491693 0.0845574 -0.554 
118 163 161 
0.495534 0.0845574 -0.554 
118 163 161 
0.500277 0.0847101 -0.555 
118 163 161 
0.504124 0.0847101 -0.555 
118 163 161 
0.507972 0.0847101 -0.555 
118 163 161 
0.51182 0.0847101 -0.555 
118 163 161 
0.517526 0.0850153 -0.557 
118 163 161 
0.522324 0.085168 -0.558 
118 163 161 
0.526193 0.085168 -0.558 
118 163 161 
0.529111 0.0850153 -0.557 
118 163 161 
0.531059 0.0847101 -0.555 
118 163 161 
0.533943 0.0845574 -0.554 
118 163 161 
0.537784 0.0845574 -0.554 
118 163 161 
0.541625 0.0845574 -0.554 
118 163 161 
-0.408045 0.0824649 -0.566 
101 135 130 
-0.404121 0.0824649 -0.566 
92 127 128 
-0.400197 0.0824649 -0.566 
87 128 125 
-0.396273 0.0824649 -0.566 
84 123 110 
-0.393042 0.0826106 -0.567 
85 123 117 
-0.389111 0.0826106 -0.567 
88 131 123 
-0.38518 0.0826106 -0.567 
86 129 123 
-0.381249 0.0826106 -0.567 
88 127 118 
-0.376653 0.0824649 -0.566 
85 123 119 
-0.37207 0.0823192 -0.565 
89 130 123 
-0.367501 0.0821735 -0.564 
91 129 127 
-0.363591 0.0821735 -0.564 
101 135 134 
-0.359681 0.0821735 -0.564 
90 126 122 
-0.35577 0.0821735 -0.564 
86 124 120 
-0.351236 0.0820278 -0.563 
90 126 120 
-0.347333 0.0820278 -0.563 
85 122 111 
-0.34404 0.0821735 -0.564 
83 120 109 
-0.34013 0.0821735 -0.564 
81 118 107 
-0.336816 0.0823192 -0.565 
83 115 106 
-0.332898 0.0823192 -0.565 
85 122 113 
-0.329563 0.0824649 -0.566 
87 117 109 
-0.326215 0.0826106 -0.567 
81 115 110 
-0.322284 0.0826106 -0.567 
79 114 106 
-0.318914 0.0827563 -0.568 
84 116 105 
-0.314976 0.0827563 -0.568 
77 114 105 
-0.311038 0.0827563 -0.568 
71 114 108 
-0.3071 0.0827563 -0.568 
80 111 107 
-0.303696 0.082902 -0.569 
74 108 103 
-0.299224 0.0827563 -0.568 
79 114 104 
-0.295286 0.0827563 -0.568 
80 117 106 
-0.290835 0.0826106 -0.567 
75 114 103 
-0.286904 0.0826106 -0.567 
70 112 100 
-0.282973 0.0826106 -0.567 
77 116 105 
-0.279042 0.0826106 -0.567 
78 117 104 
-0.274626 0.0824649 -0.566 
77 116 105 
-0.270702 0.0824649 -0.566 
78 117 106 
-0.266307 0.0823192 -0.565 
79 113 108 
-0.26239 0.0823192 -0.565 
73 110 101 
-0.258015 0.0821735 -0.564 
71 110 99 
-0.254105 0.0821735 -0.564 
73 115 105 
-0.250194 0.0821735 -0.564 
75 116 109 
-0.246284 0.0821735 -0.564 
72 113 108 
-0.242374 0.0821735 -0.564 
79 116 107 
-0.238464 0.0821735 -0.564 
78 116 110 
-0.234969 0.0823192 -0.565 
72 108 102 
-0.231052 0.0823192 -0.565 
78 114 108 
-0.227135 0.0823192 -0.565 
70 111 104 
-0.223613 0.0824649 -0.566 
70 111 104 
-0.219689 0.0824649 -0.566 
69 111 101 
-0.215765 0.0824649 -0.566 
76 119 111 
-0.211841 0.0824649 -0.566 
72 113 106 
-0.207917 0.0824649 -0.566 
72 114 104 
-0.203632 0.0823192 -0.565 
79 118 109 
-0.199715 0.0823192 -0.565 
79 115 109 
-0.195798 0.0823192 -0.565 
78 116 112 
-0.19222 0.0824649 -0.566 
78 114 108 
-0.188296 0.0824649 -0.566 
77 114 105 
-0.184372 0.0824649 -0.566 
74 118 105 
-0.180448 0.0824649 -0.566 
76 115 106 
-0.176524 0.0824649 -0.566 
85 120 110 
-0.172295 0.0823192 -0.565 
77 118 111 
-0.16808 0.0821735 -0.564 
77 118 111 
-0.164169 0.0821735 -0.564 
74 116 106 
-0.160259 0.0821735 -0.564 
77 119 107 
-0.156349 0.0821735 -0.564 
86 122 116 
-0.152439 0.0821735 -0.564 
87 128 121 
-0.148792 0.0823192 -0.565 
80 124 111 
-0.144875 0.0823192 -0.565 
79 128 113 
-0.140958 0.0823192 -0.565 
79 122 104 
-0.13704 0.0823192 -0.565 
80 122 112 
-0.132888 0.0821735 -0.564 
80 122 112 
-0.128977 0.0821735 -0.564 
77 119 107 
-0.125067 0.0821735 -0.564 
78 117 104 
-0.121157 0.0821735 -0.564 
82 117 107 
-0.117247 0.0821735 -0.564 
83 120 109 
-0.113337 0.0821735 -0.564 
89 124 114 
-0.109426 0.0821735 -0.564 
83 121 117 
-0.105703 0.0823192 -0.565 
77 128 121 
-0.101966 0.0824649 -0.566 
78 124 119 
-0.0980421 0.0824649 -0.566 
80 121 116 
-0.094118 0.0824649 -0.566 
76 117 110 
-0.0900346 0.0823192 -0.565 
81 123 113 
-0.085965 0.0821735 -0.564 
76 118 108 
-0.0820548 0.0821735 -0.564 
76 117 110 
-0.0781445 0.0821735 -0.564 
79 118 109 
-0.0742343 0.0821735 -0.564 
71 115 104 
-0.0703241 0.0821735 -0.564 
75 119 106 
-0.0664139 0.0821735 -0.564 
77 124 110 
-0.0625036 0.0821735 -0.564 
76 125 112 
-0.0585934 0.0821735 -0.564 
71 117 108 
-0.0547801 0.0823192 -0.565 
74 115 108 
-0.050773 0.0821735 -0.564 
76 118 108 
-0.0468627 0.0821735 -0.564 
77 119 109 
-0.0430287 0.0823192 -0.565 
76 119 111 
-0.0391115 0.0823192 -0.565 
79 127 119 
-0.0351944 0.0823192 -0.565 
80 122 112 
-0.0312772 0.0823192 -0.565 
83 125 115 
-0.02736 0.0823192 -0.565 
83 127 116 
-0.0234429 0.0823192 -0.565 
76 122 113 
-0.0194912 0.0821735 -0.564 
81 127 118 
-0.0155809 0.0821735 -0.564 
78 126 118 
-0.0116707 0.0821735 -0.564 
75 126 119 
-0.00776049 0.0821735 -0.564 
80 126 121 
-0.00385026 0.0821735 -0.564 
83 124 121 
5.98573e-05 0.0820278 -0.563 
82 125 119 
0.00396315 0.0820278 -0.563 
79 125 120 
0.00786644 0.0820278 -0.563 
82 123 116 
0.0117697 0.0820278 -0.563 
84 126 114 
0.015673 0.0820278 -0.563 
84 126 114 
0.0195415 0.0818821 -0.562 
85 132 118 
0.0234379 0.0818821 -0.562 
84 133 118 
0.0272856 0.0817364 -0.561 
89 138 123 
0.0311195 0.0815907 -0.56 
90 137 125 
0.035002 0.0815907 -0.56 
86 128 118 
0.0389539 0.0817364 -0.561 
93 137 126 
0.042767 0.0815907 -0.56 
90 133 127 
0.0466495 0.0815907 -0.56 
92 138 131 
0.0504417 0.081445 -0.559 
97 140 134 
0.0543173 0.081445 -0.559 
92 138 131 
0.0581928 0.081445 -0.559 
89 137 127 
0.0621794 0.0815907 -0.56 
91 140 127 
0.0660619 0.0815907 -0.56 
90 137 125 
0.0699444 0.0815907 -0.56 
90 134 123 
0.0738269 0.0815907 -0.56 
94 138 127 
0.0775706 0.081445 -0.559 
99 136 127 
0.0814462 0.081445 -0.559 
103 142 133 
0.0854744 0.0815907 -0.56 
97 139 129 
0.0893569 0.0815907 -0.56 
98 140 128 
0.0930729 0.081445 -0.559 
105 144 133 
0.096775 0.0812993 -0.558 
107 144 133 
0.101004 0.0815907 -0.56 
109 148 137 
0.105074 0.0817364 -0.561 
107 146 137 
0.109158 0.0818821 -0.562 
102 143 136 
0.112853 0.0817364 -0.561 
104 143 134 
0.116534 0.0815907 -0.56 
108 149 142 
0.119987 0.0812993 -0.558 
102 145 137 
0.123855 0.0812993 -0.558 
101 145 134 
0.127724 0.0812993 -0.558 
110 149 138 
0.131593 0.0812993 -0.558 
109 148 139 
0.135461 0.0812993 -0.558 
112 150 144 
0.13933 0.0812993 -0.558 
106 145 136 
0.143199 0.0812993 -0.558 
109 148 139 
0.147331 0.081445 -0.559 
107 145 139 
0.151206 0.081445 -0.559 
111 154 150 
0.154804 0.0812993 -0.558 
105 146 139 
0.158673 0.0812993 -0.558 
110 148 142 
0.162542 0.0812993 -0.558 
112 147 139 
0.16641 0.0812993 -0.558 
115 152 143 
0.170279 0.0812993 -0.558 
115 152 143 
0.17446 0.081445 -0.559 
106 152 145 
0.178335 0.081445 -0.559 
109 155 150 
0.182211 0.081445 -0.559 
114 162 156 
0.186086 0.081445 -0.559 
109 150 145 
0.189962 0.081445 -0.559 
111 152 145 
0.193491 0.0812993 -0.558 
107 148 143 
0.197359 0.0812993 -0.558 
111 154 148 
0.201589 0.081445 -0.559 
111 151 151 
0.205097 0.0812993 -0.558 
113 155 154 
0.208965 0.0812993 -0.558 
112 150 148 
0.212834 0.0812993 -0.558 
112 153 148 
0.216702 0.0812993 -0.558 
112 151 140 
0.220176 0.0811536 -0.557 
117 149 140 
0.223635 0.081008 -0.556 
115 150 142 
0.22749 0.081008 -0.556 
125 156 152 
0.231761 0.0811536 -0.557 
119 153 148 
0.235623 0.0811536 -0.557 
122 158 156 
0.239914 0.0812993 -0.558 
116 152 150 
0.243783 0.0812993 -0.558 
113 149 143 
0.248095 0.081445 -0.559 
127 163 157 
0.251971 0.081445 -0.559 
116 160 149 
0.255389 0.0812993 -0.558 
119 160 155 
0.259257 0.0812993 -0.558 
118 156 152 
0.262654 0.0811536 -0.557 
116 157 152 
0.266516 0.0811536 -0.557 
120 163 157 
0.270378 0.0811536 -0.557 
114 160 151 
0.274239 0.0811536 -0.557 
118 165 164 
0.278101 0.0811536 -0.557 
114 162 156 
0.282469 0.0812993 -0.558 
119 160 155 
0.286338 0.0812993 -0.558 
115 166 157 
0.290206 0.0812993 -0.558 
110 160 158 
0.294075 0.0812993 -0.558 
106 164 166 
0.297944 0.0812993 -0.558 
118 158 158 
0.301271 0.0811536 -0.557 
115 158 152 
0.305133 0.0811536 -0.557 
119 166 154 
0.308995 0.0811536 -0.557 
121 167 162 
0.312856 0.0811536 -0.557 
119 164 162 
0.317287 0.0812993 -0.558 
120 162 161 
0.32058 0.0811536 -0.557 
122 165 161 
0.323859 0.081008 -0.556 
114 152 150 
0.326535 0.0807166 -0.554 
119 170 171 
0.330376 0.0807166 -0.554 
108 170 174 
0.334217 0.0807166 -0.554 
115 165 173 
0.339278 0.081008 -0.556 
111 162 167 
0.344367 0.0812993 -0.558 
118 162 165 
0.348236 0.0812993 -0.558 
109 154 152 
0.352104 0.0812993 -0.558 
120 165 163 
0.355973 0.0812993 -0.558 
114 168 163 
0.359842 0.0812993 -0.558 
113 166 166 
0.363058 0.0811536 -0.557 
114 167 167 
0.36692 0.0811536 -0.557 
114 167 167 
0.370782 0.0811536 -0.557 
114 167 167 
0.374644 0.0811536 -0.557 
114 167 167 
0.378505 0.0811536 -0.557 
114 167 167 
0.38168 0.081008 -0.556 
114 167 167 
0.386229 0.0811536 -0.557 
114 167 167 
0.390791 0.0812993 -0.558 
114 167 167 
0.394659 0.0812993 -0.558 
114 167 167 
0.398528 0.0812993 -0.558 
114 167 167 
0.401675 0.0811536 -0.557 
111 172 171 
0.404809 0.081008 -0.556 
111 172 171 
0.409399 0.0811536 -0.557 
111 172 171 
0.41326 0.0811536 -0.557 
111 172 171 
0.417122 0.0811536 -0.557 
111 172 171 
0.420228 0.081008 -0.556 
111 172 171 
0.422557 0.0807166 -0.554 
111 172 171 
0.426398 0.0807166 -0.554 
111 172 171 
0.429463 0.0805709 -0.553 
111 172 171 
0.433297 0.0805709 -0.553 
111 172 171 
0.437921 0.0807166 -0.554 
111 172 171 
0.443357 0.081008 -0.556 
111 172 171 
0.448016 0.0811536 -0.557 
111 172 171 
0.451066 0.081008 -0.556 
111 172 171 
0.453285 0.0807166 -0.554 
111 172 171 
0.457125 0.0807166 -0.554 
111 172 171 
0.460134 0.0805709 -0.553 
111 172 171 
0.463968 0.0805709 -0.553 
111 172 171 
0.467802 0.0805709 -0.553 
111 172 171 
0.472489 0.0807166 -0.554 
111 172 171 
0.47719 0.0808622 -0.555 
111 172 171 
0.481904 0.081008 -0.556 
111 172 171 
0.485759 0.081008 -0.556 
111 172 171 
0.489614 0.081008 -0.556 
111 172 171 
0.493469 0.081008 -0.556 
111 172 171 
0.498218 0.0811536 -0.557 
111 172 171 
0.502079 0.0811536 -0.557 
111 172 171 
0.505941 0.0811536 -0.557 
111 172 171 
0.508888 0.081008 -0.556 
111 172 171 
0.512742 0.081008 -0.556 
111 172 171 
0.517526 0.0811536 -0.557 
111 172 171 
0.521388 0.0811536 -0.557 
111 172 171 
0.526193 0.0812993 -0.558 
111 172 171 
0.530061 0.0812993 -0.558 
111 172 171 
0.532973 0.0811536 -0.557 
111 172 171 
0.534907 0.0808622 -0.555 
111 172 171 
0.538755 0.0808622 -0.555 
111 172 171 
0.542603 0.0808622 -0.555 
111 172 171 
-0.408766 0.0786796 -0.567 
88 131 125 
-0.404121 0.0785408 -0.566 
93 131 129 
-0.400197 0.0785408 -0.566 
84 125 120 
-0.396273 0.0785408 -0.566 
84 131 128 
-0.393042 0.0786796 -0.567 
80 131 124 
-0.389111 0.0786796 -0.567 
80 133 124 
-0.38518 0.0786796 -0.567 
89 130 123 
-0.380577 0.0785408 -0.566 
85 128 120 
-0.376653 0.0785408 -0.566 
84 133 120 
-0.37207 0.0784021 -0.565 
83 129 120 
-0.367501 0.0782633 -0.564 
94 137 129 
-0.363591 0.0782633 -0.564 
98 128 122 
-0.359043 0.0781245 -0.563 
91 129 123 
-0.354509 0.0779858 -0.562 
86 131 129 
-0.349989 0.077847 -0.561 
82 129 126 
-0.346099 0.077847 -0.561 
79 120 117 
-0.34343 0.0781245 -0.563 
80 116 114 
-0.34013 0.0782633 -0.564 
78 121 117 
-0.336816 0.0784021 -0.565 
90 128 126 
-0.333488 0.0785408 -0.566 
81 119 117 
-0.330146 0.0786796 -0.567 
82 123 118 
-0.32679 0.0788184 -0.568 
83 119 113 
-0.32342 0.0789571 -0.569 
85 122 113 
-0.319476 0.0789571 -0.569 
83 124 117 
-0.314976 0.0788184 -0.568 
76 119 113 
-0.310491 0.0786796 -0.567 
74 117 111 
-0.30656 0.0786796 -0.567 
81 116 108 
-0.303162 0.0788184 -0.568 
83 122 113 
-0.299224 0.0788184 -0.568 
87 117 111 
-0.294767 0.0786796 -0.567 
85 119 114 
-0.290835 0.0786796 -0.567 
86 121 113 
-0.28741 0.0788184 -0.568 
78 113 101 
-0.282973 0.0786796 -0.567 
81 116 104 
-0.279042 0.0786796 -0.567 
80 117 106 
-0.275111 0.0786796 -0.567 
81 119 113 
-0.27118 0.0786796 -0.567 
70 111 106 
-0.266778 0.0785408 -0.566 
73 117 104 
-0.262854 0.0785408 -0.566 
73 117 102 
-0.25893 0.0785408 -0.566 
80 112 101 
-0.254555 0.0784021 -0.565 
79 115 99 
-0.250638 0.0784021 -0.565 
72 111 100 
-0.246284 0.0782633 -0.564 
72 111 100 
-0.242804 0.0784021 -0.565 
75 116 109 
-0.238887 0.0784021 -0.565 
76 115 106 
-0.235385 0.0785408 -0.566 
77 114 103 
-0.231461 0.0785408 -0.566 
78 113 101 
-0.227537 0.0785408 -0.566 
78 113 103 
-0.223613 0.0785408 -0.566 
77 112 104 
-0.219689 0.0785408 -0.566 
82 117 107 
-0.215765 0.0785408 -0.566 
76 113 102 
-0.211466 0.0784021 -0.565 
73 117 106 
-0.207549 0.0784021 -0.565 
73 116 108 
-0.203632 0.0784021 -0.565 
77 116 105 
-0.199362 0.0782633 -0.564 
71 109 103 
-0.195798 0.0784021 -0.565 
76 114 108 
-0.19222 0.0785408 -0.566 
77 113 107 
-0.188629 0.0786796 -0.567 
75 117 107 
-0.184698 0.0786796 -0.567 
78 117 108 
-0.180448 0.0785408 -0.566 
78 115 106 
-0.176212 0.0784021 -0.565 
82 117 109 
-0.172295 0.0784021 -0.565 
81 119 113 
-0.168378 0.0784021 -0.565 
69 120 111 
-0.164169 0.0782633 -0.564 
79 125 116 
-0.160259 0.0782633 -0.564 
74 120 111 
-0.156349 0.0782633 -0.564 
83 119 113 
-0.152439 0.0782633 -0.564 
81 124 118 
-0.148792 0.0784021 -0.565 
79 122 118 
-0.144875 0.0784021 -0.565 
82 120 116 
-0.141207 0.0785408 -0.566 
84 122 116 
-0.13704 0.0784021 -0.565 
86 125 114 
-0.132888 0.0782633 -0.564 
79 118 107 
-0.128749 0.0781245 -0.563 
81 120 109 
-0.124845 0.0781245 -0.563 
81 118 105 
-0.121157 0.0782633 -0.564 
81 118 105 
-0.117247 0.0782633 -0.564 
81 120 107 
-0.113337 0.0782633 -0.564 
80 121 114 
-0.109426 0.0782633 -0.564 
79 118 109 
-0.105703 0.0784021 -0.565 
83 122 113 
-0.102146 0.0786796 -0.567 
80 122 110 
-0.0982153 0.0786796 -0.567 
79 125 116 
-0.094118 0.0785408 -0.566 
75 113 107 
-0.0900346 0.0784021 -0.565 
86 121 111 
-0.085965 0.0782633 -0.564 
77 116 107 
-0.0820548 0.0782633 -0.564 
76 118 106 
-0.0781445 0.0782633 -0.564 
77 119 107 
-0.0742343 0.0782633 -0.564 
73 115 105 
-0.0703241 0.0782633 -0.564 
76 125 112 
-0.0664139 0.0782633 -0.564 
75 123 113 
-0.0626145 0.0784021 -0.565 
67 113 106 
-0.0586973 0.0784021 -0.565 
69 118 105 
-0.0547801 0.0784021 -0.565 
76 125 110 
-0.050773 0.0782633 -0.564 
76 125 112 
-0.0469458 0.0784021 -0.565 
73 122 109 
-0.0430287 0.0784021 -0.565 
75 117 107 
-0.0390423 0.0782633 -0.564 
83 134 125 
-0.0351321 0.0782633 -0.564 
78 127 112 
-0.0312218 0.0782633 -0.564 
79 126 114 
-0.0273116 0.0782633 -0.564 
84 130 123 
-0.0234429 0.0784021 -0.565 
76 124 116 
-0.0195257 0.0784021 -0.565 
80 129 116 
-0.0155809 0.0782633 -0.564 
80 128 118 
-0.0116914 0.0784021 -0.565 
80 128 120 
-0.00776049 0.0782633 -0.564 
80 126 121 
-0.00384343 0.0781245 -0.563 
83 129 124 
5.98573e-05 0.0781245 -0.563 
78 129 120 
0.00396315 0.0781245 -0.563 
82 125 117 
0.00786644 0.0781245 -0.563 
87 129 119 
0.0117488 0.0779858 -0.562 
85 124 115 
0.015673 0.0781245 -0.563 
90 134 123 
0.0195763 0.0781245 -0.563 
90 139 126 
0.0234379 0.0779858 -0.562 
87 139 125 
0.0272856 0.077847 -0.561 
86 133 121 
0.0311195 0.0777082 -0.56 
89 138 125 
0.0349395 0.0775695 -0.559 
88 132 121 
0.038815 0.0775695 -0.559 
89 131 119 
0.042767 0.0777082 -0.56 
85 134 119 
0.0465662 0.0775695 -0.559 
91 140 127 
0.0504417 0.0775695 -0.559 
87 134 122 
0.0544144 0.0777082 -0.56 
94 142 132 
0.0582969 0.0777082 -0.56 
90 139 126 
0.0622905 0.077847 -0.561 
90 133 125 
0.0661799 0.077847 -0.561 
92 136 125 
0.0699444 0.0777082 -0.56 
94 138 127 
0.0738269 0.0777082 -0.56 
94 138 127 
0.0775706 0.0775695 -0.559 
96 140 129 
0.0814462 0.0775695 -0.559 
99 142 134 
0.0853217 0.0775695 -0.559 
97 140 132 
0.0891973 0.0775695 -0.559 
104 141 132 
0.0929064 0.0774307 -0.558 
104 143 132 
0.096775 0.0774307 -0.558 
104 143 132 
0.100644 0.0774307 -0.558 
104 146 134 
0.104887 0.0777082 -0.56 
104 146 136 
0.108964 0.077847 -0.561 
106 145 136 
0.112853 0.077847 -0.561 
105 147 137 
0.116534 0.0777082 -0.56 
109 153 142 
0.119987 0.0774307 -0.558 
105 146 139 
0.123855 0.0774307 -0.558 
105 147 137 
0.127724 0.0774307 -0.558 
107 151 140 
0.131593 0.0774307 -0.558 
103 147 136 
0.135461 0.0774307 -0.558 
111 150 141 
0.13958 0.0775695 -0.559 
108 150 138 
0.143455 0.0775695 -0.559 
109 153 142 
0.147331 0.0775695 -0.559 
110 151 146 
0.151206 0.0775695 -0.559 
110 137 130 
0.154804 0.0774307 -0.558 
118 150 143 
0.158673 0.0774307 -0.558 
107 144 135 
0.162542 0.0774307 -0.558 
112 149 140 
0.16641 0.0774307 -0.558 
114 150 134 
0.170279 0.0774307 -0.558 
109 148 135 
0.17446 0.0775695 -0.559 
107 155 147 
0.178335 0.0775695 -0.559 
111 154 146 
0.182211 0.0775695 -0.559 
108 151 143 
0.186086 0.0775695 -0.559 
109 152 144 
0.189622 0.0774307 -0.558 
112 151 142 
0.193491 0.0774307 -0.558 
116 157 150 
0.197713 0.0775695 -0.559 
114 160 151 
0.201949 0.0777082 -0.56 
112 159 156 
0.205832 0.0777082 -0.56 
115 161 154 
0.209714 0.0777082 -0.56 
114 158 147 
0.213215 0.0775695 -0.559 
108 154 145 
0.216702 0.0774307 -0.558 
108 156 150 
0.220176 0.077292 -0.557 
110 153 149 
0.223635 0.0771532 -0.556 
121 159 157 
0.227899 0.077292 -0.557 
112 160 154 
0.231761 0.077292 -0.557 
108 160 156 
0.236046 0.0774307 -0.558 
112 162 160 
0.239914 0.0774307 -0.558 
115 166 169 
0.243783 0.0774307 -0.558 
106 169 170 
0.247651 0.0774307 -0.558 
122 168 170 
0.25152 0.0774307 -0.558 
118 163 163 
0.255389 0.0774307 -0.558 
116 167 172 
0.258793 0.077292 -0.557 
111 166 174 
0.262183 0.0771532 -0.556 
117 174 181 
0.266038 0.0771532 -0.556 
118 173 179 
0.269892 0.0771532 -0.556 
114 170 173 
0.274732 0.0774307 -0.558 
116 171 177 
0.2791 0.0775695 -0.559 
117 167 177 
0.283482 0.0777082 -0.56 
121 172 175 
0.287364 0.0777082 -0.56 
113 170 175 
0.290726 0.0775695 -0.559 
119 177 179 
0.294075 0.0774307 -0.558 
116 177 186 
0.29741 0.077292 -0.557 
120 177 184 
0.301271 0.077292 -0.557 
121 169 177 
0.305133 0.077292 -0.557 
116 168 177 
0.308995 0.077292 -0.557 
119 176 181 
0.312856 0.077292 -0.557 
112 171 182 
0.316718 0.077292 -0.557 
113 176 186 
0.32058 0.077292 -0.557 
116 175 184 
0.323277 0.0770144 -0.555 
130 179 184 
0.326535 0.0768756 -0.554 
117 177 181 
0.329183 0.0765981 -0.552 
117 176 185 
0.334217 0.0768756 -0.554 
113 175 181 
0.339278 0.0771532 -0.556 
115 175 179 
0.344367 0.0774307 -0.558 
116 172 175 
0.348236 0.0774307 -0.558 
117 170 174 
0.352104 0.0774307 -0.558 
112 168 169 
0.355335 0.077292 -0.557 
123 169 171 
0.358552 0.0771532 -0.556 
128 165 166 
0.362407 0.0771532 -0.556 
123 160 161 
0.365603 0.0770144 -0.555 
123 160 161 
0.36945 0.0770144 -0.555 
123 160 161 
0.372626 0.0768756 -0.554 
123 160 161 
0.376467 0.0768756 -0.554 
123 160 161 
0.380307 0.0768756 -0.554 
123 160 161 
0.384842 0.0770144 -0.555 
123 160 161 
0.39009 0.077292 -0.557 
123 160 161 
0.394659 0.0774307 -0.558 
123 160 161 
0.397814 0.077292 -0.557 
123 160 161 
0.400954 0.0771532 -0.556 
123 160 161 
0.404809 0.0771532 -0.556 
123 160 161 
0.408664 0.0771532 -0.556 
123 160 161 
0.41326 0.077292 -0.557 
123 160 161 
0.417122 0.077292 -0.557 
123 160 161 
0.420228 0.0771532 -0.556 
123 160 161 
0.42332 0.0770144 -0.555 
123 160 161 
0.425629 0.0767369 -0.553 
123 160 161 
0.429463 0.0767369 -0.553 
123 160 161 
0.433297 0.0767369 -0.553 
123 160 161 
0.437921 0.0768756 -0.554 
123 160 161 
0.442559 0.0770144 -0.555 
123 160 161 
0.447211 0.0771532 -0.556 
123 160 161 
0.450255 0.0770144 -0.555 
123 160 161 
0.453285 0.0768756 -0.554 
123 160 161 
0.4563 0.0767369 -0.553 
123 160 161 
0.460134 0.0767369 -0.553 
123 160 161 
0.463968 0.0767369 -0.553 
123 160 161 
0.468648 0.0768756 -0.554 
123 160 161 
0.472489 0.0768756 -0.554 
123 160 161 
0.478909 0.077292 -0.557 
123 160 161 
0.483638 0.0774307 -0.558 
123 160 161 
0.487506 0.0774307 -0.558 
123 160 161 
0.491375 0.0774307 -0.558 
123 160 161 
0.495244 0.0774307 -0.558 
123 160 161 
0.499112 0.0774307 -0.558 
123 160 161 
0.502981 0.0774307 -0.558 
123 160 161 
0.505941 0.077292 -0.557 
123 160 161 
0.508888 0.0771532 -0.556 
123 160 161 
0.51182 0.0770144 -0.555 
126 164 158 
0.515668 0.0770144 -0.555 
126 164 158 
0.520452 0.0771532 -0.556 
126 164 158 
0.52525 0.077292 -0.557 
126 164 158 
0.530061 0.0774307 -0.558 
126 164 158 
0.53393 0.0774307 -0.558 
126 164 158 
0.537798 0.0774307 -0.558 
126 164 158 
0.540696 0.077292 -0.557 
126 164 158 
0.544558 0.077292 -0.557 
126 164 158 
-0.408766 0.0747486 -0.567 
82 134 130 
-0.404835 0.0747486 -0.567 
87 135 129 
-0.400904 0.0747486 -0.567 
65 122 116 
-0.396973 0.0747486 -0.567 
74 134 122 
-0.393042 0.0747486 -0.567 
86 130 117 
-0.388425 0.0746167 -0.566 
84 133 120 
-0.384501 0.0746167 -0.566 
82 125 117 
-0.380577 0.0746167 -0.566 
97 129 122 
-0.375987 0.0744849 -0.565 
85 131 124 
-0.371411 0.0743531 -0.564 
84 130 123 
-0.367501 0.0743531 -0.564 
83 129 124 
-0.362946 0.0742212 -0.563 
95 132 119 
-0.359043 0.0742212 -0.563 
92 136 123 
-0.354509 0.0740894 -0.562 
83 129 122 
-0.349365 0.0738257 -0.56 
72 127 117 
-0.346099 0.0739576 -0.561 
75 122 119 
-0.34343 0.0742212 -0.563 
79 127 121 
-0.34013 0.0743531 -0.564 
76 126 122 
-0.336816 0.0744849 -0.565 
75 125 123 
-0.333488 0.0746167 -0.566 
79 120 115 
-0.330728 0.0748804 -0.568 
79 122 114 
-0.327365 0.0750122 -0.569 
76 118 106 
-0.323989 0.0751441 -0.57 
85 122 113 
-0.319476 0.0750122 -0.569 
84 119 111 
-0.314422 0.0747486 -0.567 
77 116 107 
-0.309943 0.0746167 -0.566 
71 114 106 
-0.306019 0.0746167 -0.566 
77 114 105 
-0.302095 0.0746167 -0.566 
81 118 109 
-0.298171 0.0746167 -0.566 
80 117 106 
-0.294247 0.0746167 -0.566 
77 115 109 
-0.290323 0.0746167 -0.566 
74 112 106 
-0.286904 0.0747486 -0.567 
84 120 114 
-0.282973 0.0747486 -0.567 
85 122 109 
-0.279042 0.0747486 -0.567 
81 118 105 
-0.275111 0.0747486 -0.567 
83 115 104 
-0.27118 0.0747486 -0.567 
84 123 114 
-0.266778 0.0746167 -0.566 
70 109 96 
-0.26239 0.0744849 -0.565 
80 117 106 
-0.258472 0.0744849 -0.565 
76 115 106 
-0.254555 0.0744849 -0.565 
78 112 107 
-0.250638 0.0744849 -0.565 
77 118 111 
-0.246721 0.0744849 -0.565 
77 115 109 
-0.242804 0.0744849 -0.565 
74 110 104 
-0.238887 0.0744849 -0.565 
73 110 101 
-0.235385 0.0746167 -0.566 
78 115 104 
-0.231461 0.0746167 -0.566 
72 111 102 
-0.227537 0.0746167 -0.566 
70 111 104 
-0.223218 0.0744849 -0.565 
72 113 106 
-0.219301 0.0744849 -0.565 
77 109 102 
-0.215384 0.0744849 -0.565 
80 115 107 
-0.211466 0.0744849 -0.565 
80 112 103 
-0.207549 0.0744849 -0.565 
83 115 106 
-0.203632 0.0744849 -0.565 
76 119 113 
-0.199715 0.0744849 -0.565 
73 116 108 
-0.196144 0.0746167 -0.566 
78 121 113 
-0.19256 0.0747486 -0.567 
77 116 107 
-0.188962 0.0748804 -0.568 
74 116 106 
-0.184698 0.0747486 -0.567 
73 121 113 
-0.180448 0.0746167 -0.566 
72 114 104 
-0.176212 0.0744849 -0.565 
82 117 109 
-0.172295 0.0744849 -0.565 
87 124 111 
-0.168378 0.0744849 -0.565 
85 124 115 
-0.164461 0.0744849 -0.565 
79 120 113 
-0.160259 0.0743531 -0.564 
79 121 111 
-0.156349 0.0743531 -0.564 
83 122 111 
-0.152439 0.0743531 -0.564 
81 123 109 
-0.148529 0.0743531 -0.564 
81 118 107 
-0.144875 0.0744849 -0.565 
83 122 113 
-0.140958 0.0744849 -0.565 
77 115 109 
-0.13704 0.0744849 -0.565 
89 124 116 
-0.132888 0.0743531 -0.564 
81 118 109 
-0.128749 0.0742212 -0.563 
83 120 111 
-0.124845 0.0742212 -0.563 
86 121 111 
-0.121157 0.0743531 -0.564 
81 118 107 
-0.117455 0.0744849 -0.565 
82 121 108 
-0.113538 0.0744849 -0.565 
86 123 110 
-0.10962 0.0744849 -0.565 
76 127 118 
-0.105703 0.0744849 -0.565 
75 123 117 
-0.101966 0.0746167 -0.566 
73 124 113 
-0.0980421 0.0746167 -0.566 
75 126 117 
-0.0939517 0.0744849 -0.565 
77 125 117 
-0.0898752 0.0743531 -0.564 
76 122 113 
-0.085965 0.0743531 -0.564 
80 122 112 
-0.0820548 0.0743531 -0.564 
74 118 107 
-0.0781445 0.0743531 -0.564 
74 117 109 
-0.0742343 0.0743531 -0.564 
76 118 108 
-0.0703241 0.0743531 -0.564 
76 120 107 
-0.0665316 0.0744849 -0.565 
78 126 118 
-0.0626145 0.0744849 -0.565 
73 119 112 
-0.0586973 0.0744849 -0.565 
71 117 110 
-0.0547801 0.0744849 -0.565 
73 119 110 
-0.050863 0.0744849 -0.565 
78 121 113 
-0.0469458 0.0744849 -0.565 
78 121 113 
-0.0430287 0.0744849 -0.565 
78 121 113 
-0.0391115 0.0744849 -0.565 
82 125 117 
-0.0351944 0.0744849 -0.565 
78 124 115 
-0.0312218 0.0743531 -0.564 
84 130 121 
-0.0273116 0.0743531 -0.564 
83 129 122 
-0.0234429 0.0744849 -0.565 
80 123 115 
-0.0195257 0.0744849 -0.565 
81 124 118 
-0.0156362 0.0746167 -0.566 
79 125 118 
-0.0116914 0.0744849 -0.565 
80 128 118 
-0.00776049 0.0743531 -0.564 
78 129 120 
-0.00384343 0.0742212 -0.563 
78 129 118 
5.98573e-05 0.0742212 -0.563 
78 129 118 
0.00396315 0.0742212 -0.563 
79 125 116 
0.00786644 0.0742212 -0.563 
85 133 125 
0.0117697 0.0742212 -0.563 
84 135 126 
0.015673 0.0742212 -0.563 
83 131 121 
0.0195763 0.0742212 -0.563 
82 130 120 
0.0234796 0.0742212 -0.563 
84 132 122 
0.0272856 0.0739576 -0.561 
92 143 132 
0.0310639 0.0736939 -0.559 
85 132 118 
0.0349395 0.0736939 -0.559 
89 128 117 
0.038815 0.0736939 -0.559 
93 130 119 
0.0426906 0.0736939 -0.559 
91 128 117 
0.0465662 0.0736939 -0.559 
93 132 123 
0.0504417 0.0736939 -0.559 
93 135 125 
0.0544144 0.0738257 -0.56 
94 141 129 
0.058401 0.0739576 -0.561 
92 140 132 
0.0622905 0.0739576 -0.561 
96 144 136 
0.0660619 0.0738257 -0.56 
87 136 121 
0.0698195 0.0736939 -0.559 
94 138 123 
0.0736951 0.0736939 -0.559 
98 137 126 
0.0777094 0.0738257 -0.56 
98 137 128 
0.0817376 0.0739576 -0.561 
98 140 130 
0.0854744 0.0738257 -0.56 
96 138 128 
0.0891973 0.0736939 -0.559 
100 139 130 
0.0930729 0.0736939 -0.559 
109 141 132 
0.0969484 0.0736939 -0.559 
109 144 134 
0.100824 0.0736939 -0.559 
111 148 139 
0.104887 0.0738257 -0.56 
105 144 135 
0.108964 0.0739576 -0.561 
101 145 134 
0.112853 0.0739576 -0.561 
104 150 141 
0.116742 0.0739576 -0.561 
104 147 139 
0.120202 0.0736939 -0.559 
104 147 139 
0.123855 0.0735621 -0.558 
106 149 143 
0.127724 0.0735621 -0.558 
102 152 148 
0.131593 0.0735621 -0.558 
98 152 149 
0.135461 0.0735621 -0.558 
106 156 152 
0.13958 0.0736939 -0.559 
105 155 153 
0.143455 0.0736939 -0.559 
106 151 151 
0.147067 0.0735621 -0.558 
106 158 156 
0.151206 0.0736939 -0.559 
108 158 156 
0.154804 0.0735621 -0.558 
111 167 166 
0.158673 0.0735621 -0.558 
107 163 164 
0.162833 0.0736939 -0.559 
108 169 168 
0.166708 0.0736939 -0.559 
108 171 170 
0.170584 0.0736939 -0.559 
102 171 172 
0.174772 0.0738257 -0.56 
107 169 173 
0.178654 0.0738257 -0.56 
106 171 171 
0.182537 0.0738257 -0.56 
105 169 172 
0.186086 0.0736939 -0.559 
109 171 175 
0.189622 0.0735621 -0.558 
108 170 174 
0.193491 0.0735621 -0.558 
112 170 172 
0.197713 0.0736939 -0.559 
110 171 172 
0.201949 0.0738257 -0.56 
119 175 178 
0.206199 0.0739576 -0.561 
105 163 161 
0.210089 0.0739576 -0.561 
107 168 165 
0.213597 0.0738257 -0.56 
109 160 161 
0.217091 0.0736939 -0.559 
109 160 163 
0.220571 0.0735621 -0.558 
112 165 169 
0.22444 0.0735621 -0.558 
115 154 163 
0.228308 0.0735621 -0.558 
118 163 161 
0.232177 0.0735621 -0.558 
107 159 155 
0.236046 0.0735621 -0.558 
112 158 160 
0.239914 0.0735621 -0.558 
114 160 162 
0.243783 0.0735621 -0.558 
112 163 154 
0.247651 0.0735621 -0.558 
121 159 155 
0.25152 0.0735621 -0.558 
116 159 155 
0.254931 0.0734303 -0.557 
116 157 161 
0.258793 0.0734303 -0.557 
114 158 161 
0.262183 0.0732984 -0.556 
118 162 165 
0.265559 0.0731666 -0.555 
121 162 159 
0.269892 0.0732984 -0.556 
122 163 160 
0.274732 0.0735621 -0.558 
111 158 157 
0.279599 0.0738257 -0.56 
114 156 155 
0.283988 0.0739576 -0.561 
121 161 163 
0.28839 0.0740894 -0.562 
120 162 161 
0.291767 0.0739576 -0.561 
119 169 165 
0.294602 0.0736939 -0.559 
115 167 163 
0.29741 0.0734303 -0.557 
113 170 164 
0.30073 0.0732984 -0.556 
120 168 162 
0.305133 0.0734303 -0.557 
115 161 156 
0.308995 0.0734303 -0.557 
126 162 158 
0.312856 0.0734303 -0.557 
118 161 157 
0.316718 0.0734303 -0.557 
118 160 159 
0.32058 0.0734303 -0.557 
126 163 166 
0.323277 0.0731666 -0.555 
122 164 163 
0.326535 0.0730348 -0.554 
119 166 163 
0.329183 0.0727711 -0.552 
126 167 164 
0.334217 0.0730348 -0.554 
127 168 165 
0.339278 0.0732984 -0.556 
122 168 163 
0.344367 0.0735621 -0.558 
114 168 165 
0.348236 0.0735621 -0.558 
111 167 166 
0.351473 0.0734303 -0.557 
120 157 158 
0.354697 0.0732984 -0.556 
127 165 163 
0.358552 0.0732984 -0.556 
118 160 150 
0.361755 0.0731666 -0.555 
118 160 150 
0.364944 0.0730348 -0.554 
118 160 150 
0.368119 0.0729029 -0.553 
118 160 150 
0.37128 0.0727711 -0.552 
118 160 150 
0.375108 0.0727711 -0.552 
118 160 150 
0.379621 0.0729029 -0.553 
118 160 150 
0.384842 0.0731666 -0.555 
118 160 150 
0.39009 0.0734303 -0.557 
118 160 150 
0.394659 0.0735621 -0.558 
118 160 150 
0.398528 0.0735621 -0.558 
118 160 150 
0.401675 0.0734303 -0.557 
118 160 150 
0.404809 0.0732984 -0.556 
