ply
format ascii 1.0
comment pointcloud saved from Realsense Viewer
element vertex 2431
property float32 x
property float32 y
property float32 z
property uchar red
property uchar green
property uchar blue
end_header
17 22 8 
-0.0921062 0.0321186 -0.578 
18 26 11 
-0.0879464 0.032063 -0.577 
15 25 11 
-0.0839461 0.032063 -0.577 
17 27 11 
-0.0798072 0.0320074 -0.576 
15 25 11 
-0.0758138 0.0320074 -0.576 
15 28 11 
-0.071945 0.032063 -0.577 
38 50 26 
-0.0680624 0.0321186 -0.578 
39 49 24 
-0.064166 0.0321741 -0.579 
37 46 26 
-0.0602556 0.0322297 -0.58 
21 26 14 
-0.0561375 0.0321741 -0.579 
21 26 14 
-0.0520333 0.0321186 -0.578 
19 27 16 
-0.0481091 0.0321741 -0.579 
19 29 15 
-0.0440949 0.0321741 -0.579 
21 31 15 
-0.0401499 0.0322297 -0.58 
19 30 11 
-0.036191 0.0322853 -0.581 
20 30 14 
-0.0321629 0.0322853 -0.581 
21 31 15 
-0.0280864 0.0322297 -0.58 
21 31 15 
-0.0240653 0.0322297 -0.58 
17 30 17 
-0.0200095 0.0321741 -0.579 
17 32 16 
-0.0159677 0.0321186 -0.578 
19 34 16 
-0.0119604 0.0321186 -0.578 
17 32 16 
-0.00795312 0.0321186 -0.578 
18 31 16 
-0.00395266 0.0321741 -0.579 
15 30 14 
6.15584e-05 0.0321741 -0.579 
16 31 15 
0.00406874 0.0321186 -0.578 
27 40 25 
0.00809 0.0321741 -0.579 
57 72 56 
0.0121878 0.0323964 -0.583 
53 65 41 
0.016369 0.0326742 -0.588 
80 103 95 
0.0206542 0.0330077 -0.594 
72 114 100 
0.0248976 0.0331744 -0.597 
83 122 109 
0.0290852 0.0332299 -0.598 
88 135 121 
0.0331756 0.0331744 -0.597 
86 130 117 
0.0373146 0.0331744 -0.597 
88 135 123 
0.0415231 0.0332299 -0.598 
92 139 127 
0.0457454 0.0332855 -0.599 
91 138 126 
0.0498983 0.0332855 -0.599 
91 138 124 
0.0540511 0.0332855 -0.599 
93 137 124 
0.0581069 0.0332299 -0.598 
97 143 134 
0.0622528 0.0332299 -0.598 
90 141 130 
0.0663987 0.0332299 -0.598 
99 145 136 
0.0705447 0.0332299 -0.598 
96 139 131 
0.0746906 0.0332299 -0.598 
97 144 132 
0.0788366 0.0332299 -0.598 
95 142 130 
0.0829825 0.0332299 -0.598 
96 144 134 
0.0869828 0.0331744 -0.597 
99 142 134 
0.0911218 0.0331744 -0.597 
101 143 133 
0.0952608 0.0331744 -0.597 
99 146 134 
0.0993998 0.0331744 -0.597 
100 144 133 
0.103539 0.0331744 -0.597 
105 144 135 
0.107678 0.0331744 -0.597 
103 144 137 
0.111817 0.0331744 -0.597 
105 143 137 
0.115956 0.0331744 -0.597 
108 145 136 
0.120095 0.0331744 -0.597 
106 145 136 
0.124026 0.0331188 -0.596 
104 143 132 
0.128158 0.0331188 -0.596 
107 146 137 
0.13229 0.0331188 -0.596 
106 149 141 
0.136422 0.0331188 -0.596 
105 146 139 
0.14079 0.0331744 -0.597 
108 149 142 
0.144929 0.0331744 -0.597 
101 143 131 
0.149068 0.0331744 -0.597 
107 151 140 
0.153464 0.0332299 -0.598 
103 142 133 
0.157873 0.0332855 -0.599 
112 148 142 
0.162026 0.0332855 -0.599 
114 152 146 
0.166179 0.0332855 -0.599 
108 149 144 
0.170047 0.0332299 -0.598 
111 149 143 
0.173902 0.0331744 -0.597 
114 151 142 
0.178041 0.0331744 -0.597 
109 148 139 
0.18218 0.0331744 -0.597 
108 152 141 
0.186007 0.0331188 -0.596 
107 150 142 
0.190139 0.0331188 -0.596 
109 152 144 
0.194597 0.0331744 -0.597 
113 159 154 
0.199069 0.0332299 -0.598 
106 154 148 
0.203215 0.0332299 -0.598 
118 160 150 
0.207361 0.0332299 -0.598 
109 151 141 
0.211507 0.0332299 -0.598 
117 149 138 
0.215292 0.0331744 -0.597 
122 155 140 
0.219431 0.0331744 -0.597 
114 150 134 
0.223196 0.0331188 -0.596 
108 159 150 
0.227328 0.0331188 -0.596 
108 156 150 
0.23146 0.0331188 -0.596 
108 154 145 
0.235987 0.0331744 -0.597 
116 159 155 
0.240126 0.0331744 -0.597 
111 153 152 
0.244265 0.0331744 -0.597 
111 154 150 
0.248404 0.0331744 -0.597 
113 156 152 
0.252543 0.0331744 -0.597 
107 154 151 
0.257112 0.0332299 -0.598 
119 155 151 
0.261258 0.0332299 -0.598 
118 158 158 
0.265848 0.0332855 -0.599 
111 154 148 
0.270001 0.0332855 -0.599 
108 151 143 
0.273696 0.0332299 -0.598 
111 152 147 
0.277377 0.0331744 -0.597 
110 151 146 
0.281045 0.0331188 -0.596 
122 153 149 
0.284699 0.0330632 -0.595 
116 151 143 
0.288824 0.0330632 -0.595 
119 151 142 
0.292949 0.0330632 -0.595 
115 150 142 
0.297074 0.0330632 -0.595 
120 156 150 
0.301199 0.0330632 -0.595 
119 153 150 
0.305837 0.0331188 -0.596 
121 157 151 
0.309969 0.0331188 -0.596 
113 160 159 
0.314629 0.0331744 -0.597 
116 160 163 
0.319302 0.0332299 -0.598 
117 159 160 
0.323448 0.0332299 -0.598 
117 157 157 
0.327593 0.0332299 -0.598 
114 158 161 
0.331185 0.0331744 -0.597 
109 162 155 
0.335324 0.0331744 -0.597 
115 162 159 
0.338894 0.0331188 -0.596 
114 166 162 
0.343026 0.0331188 -0.596 
113 162 163 
0.347158 0.0331188 -0.596 
118 158 160 
0.35129 0.0331188 -0.596 
119 158 163 
0.355422 0.0331188 -0.596 
123 160 161 
0.359554 0.0331188 -0.596 
116 158 157 
0.363687 0.0331188 -0.596 
125 161 157 
0.367202 0.0330632 -0.595 
121 169 163 
0.371327 0.0330632 -0.595 
121 162 157 
0.376083 0.0331188 -0.596 
113 160 159 
0.380215 0.0331188 -0.596 
118 163 163 
0.384992 0.0331744 -0.597 
120 170 168 
0.388479 0.0331188 -0.596 
120 169 170 
0.392611 0.0331188 -0.596 
120 169 170 
0.396078 0.0330632 -0.595 
120 169 170 
0.400203 0.0330632 -0.595 
120 169 170 
0.404328 0.0330632 -0.595 
120 169 170 
0.408453 0.0330632 -0.595 
120 169 170 
0.412578 0.0330632 -0.595 
120 169 170 
0.417404 0.0331188 -0.596 
120 169 170 
0.422243 0.0331744 -0.597 
120 169 170 
0.426382 0.0331744 -0.597 
120 169 170 
0.431242 0.0332299 -0.598 
120 169 170 
0.43466 0.0331744 -0.597 
120 169 170 
0.438064 0.0331188 -0.596 
120 169 170 
0.442196 0.0331188 -0.596 
120 169 170 
0.446328 0.0331188 -0.596 
120 169 170 
0.45046 0.0331188 -0.596 
120 169 170 
0.45383 0.0330632 -0.595 
120 169 170 
0.457185 0.0330077 -0.594 
120 169 170 
0.460527 0.0329521 -0.593 
120 169 170 
0.464638 0.0329521 -0.593 
120 169 170 
0.466378 0.0327854 -0.59 
120 169 170 
0.470468 0.0327854 -0.59 
120 169 170 
0.474559 0.0327854 -0.59 
116 165 166 
0.479461 0.0328409 -0.591 
116 165 166 
0.483558 0.0328409 -0.591 
116 165 166 
0.487655 0.0328409 -0.591 
116 165 166 
0.492585 0.0328965 -0.592 
116 165 166 
0.498367 0.0330077 -0.594 
116 165 166 
0.503331 0.0330632 -0.595 
116 165 166 
0.508309 0.0331188 -0.596 
116 165 166 
0.512442 0.0331188 -0.596 
116 165 166 
0.51484 0.0330077 -0.594 
116 165 166 
0.518085 0.0329521 -0.593 
116 165 166 
0.521315 0.0328965 -0.592 
116 165 166 
0.79864 0.0492336 -0.886 
116 165 166 
0.805691 0.0492892 -0.887 
116 165 166 
0.808179 0.0490669 -0.883 
116 165 166 
0.810612 0.0488447 -0.879 
116 165 166 
0.809273 0.0484001 -0.871 
116 165 166 
0.806888 0.0479 -0.862 
116 165 166 
0.810035 0.0477333 -0.859 
116 165 166 
0.81694 0.0477889 -0.86 
116 165 166 
0.824816 0.0479 -0.862 
116 165 166 
0.829829 0.0478444 -0.861 
116 165 166 
0.83871 0.0480111 -0.864 
116 165 166 
0.8447 0.0480111 -0.864 
116 165 166 
-0.429673 0.0289867 -0.596 
66 113 110 
-0.425541 0.0289867 -0.596 
64 114 110 
-0.421409 0.0289867 -0.596 
75 116 113 
-0.417977 0.0290353 -0.597 
83 112 111 
-0.414531 0.029084 -0.598 
68 111 107 
-0.411072 0.0291326 -0.599 
73 114 111 
-0.406239 0.029084 -0.598 
75 113 111 
-0.402093 0.029084 -0.598 
71 118 115 
-0.397947 0.029084 -0.598 
66 119 110 
-0.393801 0.029084 -0.598 
70 118 110 
-0.389004 0.0290353 -0.597 
68 110 109 
-0.38551 0.029084 -0.598 
65 107 106 
-0.381364 0.029084 -0.598 
64 114 112 
-0.377848 0.0291326 -0.599 
70 111 108 
-0.373696 0.0291326 -0.599 
78 121 115 
-0.37016 0.0291813 -0.6 
69 111 101 
-0.366 0.0291813 -0.6 
75 116 113 
-0.36184 0.0291813 -0.6 
72 115 111 
-0.357084 0.0291326 -0.599 
68 116 106 
-0.352342 0.029084 -0.598 
69 115 106 
-0.348196 0.029084 -0.598 
68 110 109 
-0.344625 0.0291326 -0.599 
71 114 108 
-0.340473 0.0291326 -0.599 
74 115 110 
-0.33632 0.0291326 -0.599 
70 106 102 
-0.331612 0.029084 -0.598 
74 111 112 
-0.326919 0.0290353 -0.597 
66 109 103 
-0.322239 0.0289867 -0.596 
67 110 102 
-0.318641 0.0290353 -0.597 
62 108 99 
-0.315028 0.029084 -0.598 
68 109 102 
-0.311402 0.0291326 -0.599 
72 115 109 
-0.30725 0.0291326 -0.599 
67 110 102 
-0.302591 0.029084 -0.598 
64 111 97 
-0.297946 0.0290353 -0.597 
70 112 98 
-0.293807 0.0290353 -0.597 
74 111 100 
-0.290153 0.029084 -0.598 
70 108 104 
-0.286007 0.029084 -0.598 
66 107 104 
-0.281861 0.029084 -0.598 
72 110 106 
-0.277251 0.0290353 -0.597 
72 113 108 
-0.273111 0.0290353 -0.597 
74 111 100 
-0.268522 0.0289867 -0.596 
74 111 98 
-0.26439 0.0289867 -0.596 
72 109 100 
-0.260694 0.0290353 -0.597 
69 110 105 
-0.256555 0.0290353 -0.597 
68 109 102 
-0.252839 0.029084 -0.598 
69 110 103 
-0.248277 0.0290353 -0.597 
67 110 102 
-0.243729 0.0289867 -0.596 
69 110 105 
-0.239597 0.0289867 -0.596 
74 112 108 
-0.23507 0.0289381 -0.595 
69 114 112 
-0.231333 0.0289867 -0.596 
67 112 110 
-0.227582 0.0290353 -0.597 
69 107 101 
-0.224192 0.0291326 -0.599 
70 112 100 
-0.220406 0.0291813 -0.6 
69 111 101 
-0.216247 0.0291813 -0.6 
72 111 102 
-0.212087 0.0291813 -0.6 
72 114 104 
-0.20758 0.0291326 -0.599 
68 111 105 
-0.202748 0.0290353 -0.597 
74 112 106 
-0.197611 0.0288894 -0.594 
77 113 107 
-0.19219 0.0286949 -0.59 
62 108 101 
-0.187462 0.0285976 -0.588 
59 91 84 
-0.183073 0.028549 -0.587 
38 43 31 
-0.178699 0.0285004 -0.586 
20 30 7 
-0.174934 0.028549 -0.587 
16 21 7 
-0.171447 0.0286463 -0.589 
11 21 5 
-0.167363 0.0286463 -0.589 
12 22 6 
-0.162725 0.028549 -0.587 
18 23 11 
-0.157844 0.0284031 -0.584 
20 22 11 
-0.152742 0.0282085 -0.58 
18 23 13 
-0.148208 0.0281113 -0.578 
14 24 12 
-0.143702 0.028014 -0.576 
16 24 11 
-0.139951 0.0280626 -0.577 
18 25 17 
-0.136186 0.0281113 -0.578 
16 24 11 
-0.132408 0.0281599 -0.579 
13 26 13 
-0.128394 0.0281599 -0.579 
21 26 12 
-0.124379 0.0281599 -0.579 
15 25 13 
-0.120365 0.0281599 -0.579 
17 23 6 
-0.116552 0.0282085 -0.58 
16 24 9 
-0.112725 0.0282572 -0.581 
16 24 9 
-0.108884 0.0283058 -0.582 
17 27 13 
-0.104849 0.0283058 -0.582 
34 44 19 
-0.10064 0.0282572 -0.581 
23 33 10 
-0.0962797 0.0281599 -0.579 
16 25 5 
-0.0921062 0.0281113 -0.578 
19 28 10 
-0.0879464 0.0280626 -0.577 
16 24 9 
-0.0838006 0.028014 -0.576 
20 26 9 
-0.0798072 0.028014 -0.576 
18 28 12 
-0.0758138 0.028014 -0.576 
26 35 15 
-0.071945 0.0280626 -0.577 
40 52 26 
-0.0681802 0.0281599 -0.579 
38 44 27 
-0.064166 0.0281599 -0.579 
19 27 14 
-0.0601518 0.0281599 -0.579 
16 31 17 
-0.0560406 0.0281113 -0.578 
18 28 16 
-0.0520333 0.0281113 -0.578 
19 29 15 
-0.0481091 0.0281599 -0.579 
19 29 13 
-0.044171 0.0282085 -0.58 
19 32 17 
-0.0402883 0.0283058 -0.582 
19 32 15 
-0.0362533 0.0283058 -0.582 
19 32 15 
-0.0322183 0.0283058 -0.582 
18 31 14 
-0.0281348 0.0282572 -0.581 
18 31 16 
-0.0241067 0.0282572 -0.581 
18 31 16 
-0.0200441 0.0282085 -0.58 
20 30 14 
-0.016023 0.0282085 -0.58 
19 29 15 
-0.0120018 0.0282085 -0.58 
18 28 14 
-0.00798064 0.0282085 -0.58 
18 31 16 
-0.00395266 0.0281599 -0.579 
14 29 13 
6.15584e-05 0.0281599 -0.579 
15 30 14 
0.00408282 0.0282085 -0.58 
21 36 22 
0.00811794 0.0282572 -0.581 
60 73 58 
0.0122297 0.0284517 -0.585 
72 82 59 
0.0164247 0.0286949 -0.59 
84 104 97 
0.0207238 0.0289867 -0.596 
82 121 112 
0.0248976 0.0290353 -0.597 
88 131 123 
0.0290366 0.0290353 -0.597 
89 138 125 
0.0331756 0.0290353 -0.597 
87 136 123 
0.0373146 0.0290353 -0.597 
93 137 126 
0.0415231 0.029084 -0.598 
90 137 125 
0.0457454 0.0291326 -0.599 
92 140 130 
0.0498983 0.0291326 -0.599 
87 133 124 
0.0540511 0.0291326 -0.599 
86 134 124 
0.0581069 0.029084 -0.598 
93 141 133 
0.0622528 0.029084 -0.598 
90 141 132 
0.0663987 0.029084 -0.598 
92 140 130 
0.0705447 0.029084 -0.598 
97 143 134 
0.0746906 0.029084 -0.598 
95 141 132 
0.0788366 0.029084 -0.598 
98 145 133 
0.0828438 0.0290353 -0.597 
97 144 130 
0.0869828 0.0290353 -0.597 
95 139 126 
0.0911218 0.0290353 -0.597 
102 144 132 
0.0952608 0.0290353 -0.597 
102 144 132 
0.0993998 0.0290353 -0.597 
97 141 130 
0.103712 0.029084 -0.598 
102 144 134 
0.107858 0.029084 -0.598 
103 147 136 
0.112004 0.029084 -0.598 
104 148 135 
0.115956 0.0290353 -0.597 
105 152 138 
0.120095 0.0290353 -0.597 
107 149 137 
0.124026 0.0289867 -0.596 
107 149 139 
0.128158 0.0289867 -0.596 
105 147 137 
0.13229 0.0289867 -0.596 
100 147 135 
0.136422 0.0289867 -0.596 
105 142 133 
0.14079 0.0290353 -0.597 
115 150 140 
0.144686 0.0289867 -0.596 
109 146 133 
0.148818 0.0289867 -0.596 
108 150 136 
0.15295 0.0289867 -0.596 
104 146 134 
0.157346 0.0290353 -0.597 
105 146 139 
0.161485 0.0290353 -0.597 
111 152 145 
0.165624 0.0290353 -0.597 
106 144 138 
0.169479 0.0289867 -0.596 
106 145 136 
0.173611 0.0289867 -0.596 
113 148 140 
0.177743 0.0289867 -0.596 
110 145 133 
0.181875 0.0289867 -0.596 
113 152 143 
0.186007 0.0289867 -0.596 
107 145 139 
0.190139 0.0289867 -0.596 
110 149 140 
0.194597 0.0290353 -0.597 
112 154 142 
0.199069 0.029084 -0.598 
109 151 141 
0.203895 0.0291813 -0.6 
109 151 141 
0.207708 0.0291326 -0.599 
112 153 146 
0.211861 0.0291326 -0.599 
111 150 141 
0.215292 0.0290353 -0.597 
114 153 142 
0.219431 0.0290353 -0.597 
114 158 145 
0.223196 0.0289867 -0.596 
111 153 141 
0.227328 0.0289867 -0.596 
112 158 149 
0.23146 0.0289867 -0.596 
109 155 146 
0.235592 0.0289867 -0.596 
107 153 144 
0.239724 0.0289867 -0.596 
110 153 145 
0.244265 0.0290353 -0.597 
109 155 150 
0.248404 0.0290353 -0.597 
118 159 154 
0.252543 0.0290353 -0.597 
114 155 148 
0.257112 0.029084 -0.598 
117 158 151 
0.261695 0.0291326 -0.599 
114 152 148 
0.266292 0.0291813 -0.6 
118 155 146 
0.270452 0.0291813 -0.6 
116 153 144 
0.274154 0.0291326 -0.599 
117 152 144 
0.277842 0.029084 -0.598 
120 154 151 
0.281988 0.029084 -0.598 
115 151 145 
0.285655 0.0290353 -0.597 
113 151 145 
0.289309 0.0289867 -0.596 
116 152 146 
0.293441 0.0289867 -0.596 
123 159 155 
0.297573 0.0289867 -0.596 
119 161 151 
0.301705 0.0289867 -0.596 
118 157 148 
0.305837 0.0289867 -0.596 
120 158 152 
0.309969 0.0289867 -0.596 
118 159 154 
0.314629 0.0290353 -0.597 
118 156 150 
0.319302 0.029084 -0.598 
119 160 153 
0.323448 0.029084 -0.598 
113 155 154 
0.327046 0.0290353 -0.597 
119 159 159 
0.331185 0.0290353 -0.597 
121 162 157 
0.334762 0.0289867 -0.596 
122 165 161 
0.338894 0.0289867 -0.596 
114 160 155 
0.343026 0.0289867 -0.596 
116 158 157 
0.347158 0.0289867 -0.596 
122 167 167 
0.35129 0.0289867 -0.596 
123 162 167 
0.355422 0.0289867 -0.596 
126 163 166 
0.359554 0.0289867 -0.596 
118 162 167 
0.363687 0.0289867 -0.596 
114 160 162 
0.367819 0.0289867 -0.596 
119 170 173 
0.371327 0.0289381 -0.595 
114 165 168 
0.375452 0.0289381 -0.595 
114 166 162 
0.380215 0.0289867 -0.596 
116 168 166 
0.384347 0.0289867 -0.596 
117 168 169 
0.387827 0.0289381 -0.595 
112 161 162 
0.391294 0.0288894 -0.594 
112 161 162 
0.394746 0.0288408 -0.593 
112 161 162 
0.398857 0.0288408 -0.593 
112 161 162 
0.402969 0.0288408 -0.593 
112 161 162 
0.40708 0.0288408 -0.593 
112 161 162 
0.411191 0.0288408 -0.593 
112 161 162 
0.416003 0.0288894 -0.594 
112 161 162 
0.420121 0.0288894 -0.594 
112 161 162 
0.424954 0.0289381 -0.595 
112 161 162 
0.429079 0.0289381 -0.595 
112 161 162 
0.433932 0.0289867 -0.596 
112 161 162 
0.437329 0.0289381 -0.595 
117 164 163 
0.442196 0.0289867 -0.596 
117 164 163 
0.446328 0.0289867 -0.596 
117 164 163 
0.45046 0.0289867 -0.596 
117 164 163 
0.45383 0.0289381 -0.595 
117 164 163 
0.457185 0.0288894 -0.594 
117 164 163 
0.460527 0.0288408 -0.593 
117 164 163 
0.463071 0.0287435 -0.591 
117 164 163 
0.466378 0.0286949 -0.59 
117 164 163 
0.469671 0.0286463 -0.589 
117 164 163 
0.475363 0.0287435 -0.591 
117 164 163 
0.481894 0.0288894 -0.594 
117 164 163 
0.486831 0.0289381 -0.595 
117 164 163 
0.490131 0.0288894 -0.594 
117 164 163 
0.494249 0.0288894 -0.594 
117 164 163 
0.498367 0.0288894 -0.594 
117 164 163 
0.503331 0.0289381 -0.595 
117 164 163 
0.506604 0.0288894 -0.594 
117 164 163 
0.510722 0.0288894 -0.594 
117 164 163 
0.513107 0.0287922 -0.592 
117 164 163 
0.516337 0.0287435 -0.591 
117 164 163 
0.791603 0.0430423 -0.885 
117 164 163 
0.797738 0.0430423 -0.885 
117 164 163 
0.804782 0.043091 -0.886 
117 164 163 
0.81001 0.0430423 -0.885 
117 164 163 
0.80969 0.0427019 -0.878 
117 164 163 
0.807415 0.0422642 -0.869 
117 164 163 
0.805015 0.0418265 -0.86 
117 164 163 
0.808149 0.0416806 -0.857 
117 164 163 
0.81599 0.0417778 -0.859 
117 164 163 
0.822903 0.0418265 -0.86 
117 164 163 
0.827901 0.0417778 -0.859 
117 164 163 
0.839681 0.0420696 -0.865 
117 164 163 
0.845678 0.0420696 -0.865 
117 164 163 
-0.431115 0.024938 -0.598 
79 114 117 
-0.426255 0.0248963 -0.597 
77 117 119 
-0.422116 0.0248963 -0.597 
63 112 115 
-0.417977 0.0248963 -0.597 
71 118 117 
-0.414531 0.024938 -0.598 
71 114 108 
-0.411072 0.0249797 -0.599 
73 116 112 
-0.406919 0.0249797 -0.599 
69 114 114 
-0.402766 0.0249797 -0.599 
71 115 118 
-0.397947 0.024938 -0.598 
66 112 107 
-0.393801 0.024938 -0.598 
59 107 101 
-0.389004 0.0248963 -0.597 
62 112 108 
-0.384865 0.0248963 -0.597 
50 106 105 
-0.380726 0.0248963 -0.597 
53 111 111 
-0.377218 0.024938 -0.598 
65 110 108 
-0.373696 0.0249797 -0.599 
62 114 112 
-0.37016 0.0250214 -0.6 
68 117 118 
-0.366 0.0250214 -0.6 
73 115 114 
-0.361237 0.0249797 -0.599 
63 110 107 
-0.356488 0.024938 -0.598 
68 118 116 
-0.351753 0.0248963 -0.597 
66 116 112 
-0.348196 0.024938 -0.598 
67 117 113 
-0.34405 0.024938 -0.598 
72 110 108 
-0.340473 0.0249797 -0.599 
76 105 104 
-0.33632 0.0249797 -0.599 
74 108 103 
-0.331612 0.024938 -0.598 
69 109 109 
-0.326919 0.0248963 -0.597 
66 106 106 
-0.32278 0.0248963 -0.597 
69 115 108 
-0.318641 0.0248963 -0.597 
71 109 103 
-0.314502 0.0248963 -0.597 
75 114 105 
-0.310883 0.024938 -0.598 
73 109 103 
-0.30725 0.0249797 -0.599 
71 109 103 
-0.302591 0.024938 -0.598 
70 112 100 
-0.298445 0.024938 -0.598 
62 108 99 
-0.294299 0.024938 -0.598 
70 109 98 
-0.290638 0.0249797 -0.599 
68 110 98 
-0.286485 0.0249797 -0.599 
69 116 104 
-0.281861 0.024938 -0.598 
65 107 97 
-0.277715 0.024938 -0.598 
72 111 102 
-0.273111 0.0248963 -0.597 
70 112 102 
-0.268972 0.0248963 -0.597 
75 114 105 
-0.264833 0.0248963 -0.597 
72 110 104 
-0.261131 0.024938 -0.598 
74 111 102 
-0.256985 0.024938 -0.598 
73 110 101 
-0.252839 0.024938 -0.598 
71 109 103 
-0.248277 0.0248963 -0.597 
70 108 102 
-0.244138 0.0248963 -0.597 
72 109 100 
-0.239597 0.0248546 -0.596 
74 111 102 
-0.235465 0.0248546 -0.596 
73 107 102 
-0.231721 0.0248963 -0.597 
70 108 102 
-0.227964 0.024938 -0.598 
72 119 107 
-0.224566 0.0250214 -0.6 
75 114 103 
-0.220406 0.0250214 -0.6 
81 123 109 
-0.216607 0.0250631 -0.601 
78 117 104 
-0.212087 0.0250214 -0.6 
77 117 100 
-0.20758 0.0249797 -0.599 
76 115 102 
-0.202409 0.0248546 -0.596 
76 119 115 
-0.197611 0.0247712 -0.594 
76 121 119 
-0.19219 0.0246044 -0.59 
64 112 106 
-0.187143 0.0244793 -0.587 
56 91 81 
-0.182762 0.0244376 -0.586 
35 43 32 
-0.178394 0.0243959 -0.585 
20 30 16 
-0.174636 0.0244376 -0.586 
15 23 10 
-0.170864 0.0244793 -0.587 
12 22 8 
-0.166795 0.0244793 -0.587 
12 22 10 
-0.161893 0.0243542 -0.584 
14 22 7 
-0.157034 0.0242291 -0.581 
14 22 9 
-0.152215 0.024104 -0.578 
18 20 11 
-0.147952 0.0240623 -0.577 
20 25 15 
-0.143702 0.0240206 -0.576 
18 23 11 
-0.140194 0.024104 -0.578 
22 24 13 
-0.136422 0.0241457 -0.579 
17 22 12 
-0.132636 0.0241874 -0.58 
17 27 13 
-0.128394 0.0241457 -0.579 
14 23 16 
-0.124379 0.0241457 -0.579 
14 24 10 
-0.120365 0.0241457 -0.579 
13 26 9 
-0.116351 0.0241457 -0.579 
12 25 12 
-0.112531 0.0241874 -0.58 
14 22 11 
-0.108697 0.0242291 -0.581 
15 25 13 
-0.104668 0.0242291 -0.581 
26 28 17 
-0.100467 0.0241874 -0.58 
32 49 23 
-0.0962797 0.0241457 -0.579 
40 55 30 
-0.0919468 0.0240623 -0.577 
15 29 9 
-0.0879464 0.0240623 -0.577 
15 28 11 
-0.0839461 0.0240623 -0.577 
16 24 9 
-0.0799457 0.0240623 -0.577 
25 36 17 
-0.0759454 0.0240623 -0.577 
32 43 13 
-0.071945 0.0240623 -0.577 
25 34 16 
-0.0680624 0.024104 -0.578 
19 27 12 
-0.0640551 0.024104 -0.578 
20 28 13 
-0.059944 0.0240623 -0.577 
17 27 11 
-0.0559436 0.0240623 -0.577 
18 26 13 
-0.0519433 0.0240623 -0.577 
20 31 12 
-0.0481091 0.0241457 -0.579 
19 30 11 
-0.0442472 0.0242291 -0.581 
21 31 15 
-0.0403575 0.0243125 -0.583 
22 35 18 
-0.0363156 0.0243125 -0.583 
18 32 12 
-0.0322736 0.0243125 -0.583 
20 30 14 
-0.0281833 0.0242708 -0.582 
20 30 14 
-0.0241067 0.0242291 -0.581 
20 33 16 
-0.0200787 0.0242291 -0.581 
20 33 18 
-0.0160506 0.0242291 -0.581 
18 31 14 
-0.0120225 0.0242291 -0.581 
17 32 16 
-0.00798064 0.0241874 -0.58 
19 29 15 
-0.00395949 0.0241874 -0.58 
16 31 15 
6.16647e-05 0.0241874 -0.58 
18 33 15 
0.00408986 0.0242291 -0.581 
21 36 18 
0.00815986 0.0243542 -0.584 
70 83 68 
0.0123133 0.0245627 -0.589 
77 92 65 
0.016536 0.0247712 -0.594 
84 109 100 
0.0207238 0.0248546 -0.596 
81 120 107 
0.0248559 0.0248546 -0.596 
87 134 122 
0.0289879 0.0248546 -0.596 
94 140 131 
0.0331756 0.0248963 -0.597 
90 139 126 
0.0373146 0.0248963 -0.597 
88 135 123 
0.0414536 0.0248963 -0.597 
96 138 128 
0.045669 0.024938 -0.598 
93 137 126 
0.049815 0.024938 -0.598 
94 138 127 
0.0539609 0.024938 -0.598 
88 135 123 
0.0581069 0.024938 -0.598 
93 140 128 
0.0622528 0.024938 -0.598 
94 142 132 
0.0663987 0.024938 -0.598 
91 138 126 
0.0704267 0.0248963 -0.597 
96 140 127 
0.0745657 0.0248963 -0.597 
94 141 129 
0.0787047 0.0248963 -0.597 
100 147 133 
0.0828438 0.0248963 -0.597 
97 149 135 
0.0871285 0.024938 -0.598 
103 147 136 
0.0912744 0.024938 -0.598 
102 148 139 
0.0952608 0.0248963 -0.597 
99 145 136 
0.0995663 0.024938 -0.598 
102 144 130 
0.103712 0.024938 -0.598 
105 144 133 
0.107858 0.024938 -0.598 
105 144 133 
0.112004 0.024938 -0.598 
103 142 131 
0.115956 0.0248963 -0.597 
109 148 137 
0.120095 0.0248963 -0.597 
104 146 134 
0.124026 0.0248546 -0.596 
107 149 137 
0.128158 0.0248546 -0.596 
114 156 144 
0.13229 0.0248546 -0.596 
107 149 137 
0.136651 0.0248963 -0.597 
106 143 132 
0.14079 0.0248963 -0.597 
114 151 138 
0.144929 0.0248963 -0.597 
111 150 139 
0.148818 0.0248546 -0.596 
114 152 146 
0.153207 0.0248963 -0.597 
107 148 141 
0.157346 0.0248963 -0.597 
104 145 138 
0.161485 0.0248963 -0.597 
112 154 140 
0.165347 0.0248546 -0.596 
105 147 135 
0.169479 0.0248546 -0.596 
109 150 143 
0.173611 0.0248546 -0.596 
111 152 147 
0.177743 0.0248546 -0.596 
113 156 150 
0.18218 0.0248963 -0.597 
109 150 143 
0.186319 0.0248963 -0.597 
105 146 139 
0.190458 0.0248963 -0.597 
109 152 144 
0.194923 0.024938 -0.598 
108 150 140 
0.199402 0.0249797 -0.599 
107 149 137 
0.204234 0.0250631 -0.601 
111 150 139 
0.208054 0.0250214 -0.6 
111 150 139 
0.211861 0.0249797 -0.599 
109 151 137 
0.215653 0.024938 -0.598 
113 152 141 
0.219431 0.0248963 -0.597 
109 148 139 
0.223196 0.0248546 -0.596 
106 145 136 
0.227328 0.0248546 -0.596 
113 152 143 
0.231072 0.0248129 -0.595 
116 151 139 
0.235592 0.0248546 -0.596 
123 160 147 
0.239724 0.0248546 -0.596 
116 155 142 
0.243856 0.0248546 -0.596 
110 151 148 
0.247988 0.0248546 -0.596 
120 156 150 
0.25212 0.0248546 -0.596 
113 152 143 
0.256682 0.0248963 -0.597 
121 158 149 
0.261258 0.024938 -0.598 
118 155 146 
0.265848 0.0249797 -0.599 
119 151 144 
0.270001 0.0249797 -0.599 
121 156 148 
0.274154 0.0249797 -0.599 
114 150 144 
0.278307 0.0249797 -0.599 
119 155 149 
0.281988 0.024938 -0.598 
116 150 145 
0.286134 0.024938 -0.598 
124 159 151 
0.289795 0.0248963 -0.597 
118 154 148 
0.293441 0.0248546 -0.596 
116 152 146 
0.297573 0.0248546 -0.596 
121 156 146 
0.301199 0.0248129 -0.595 
117 158 153 
0.305324 0.0248129 -0.595 
116 162 157 
0.309969 0.0248546 -0.596 
114 157 153 
0.314629 0.0248963 -0.597 
118 158 158 
0.318768 0.0248963 -0.597 
118 159 163 
0.322907 0.0248963 -0.597 
109 161 157 
0.327046 0.0248963 -0.597 
115 155 155 
0.331185 0.0248963 -0.597 
116 160 165 
0.334762 0.0248546 -0.596 
104 156 154 
0.338894 0.0248546 -0.596 
121 164 158 
0.343026 0.0248546 -0.596 
116 162 157 
0.347158 0.0248546 -0.596 
120 163 157 
0.35129 0.0248546 -0.596 
120 170 168 
0.355422 0.0248546 -0.596 
118 168 166 
0.359554 0.0248546 -0.596 
108 160 156 
0.363687 0.0248546 -0.596 
117 170 163 
0.367819 0.0248546 -0.596 
118 163 161 
0.371327 0.0248129 -0.595 
112 161 164 
0.375452 0.0248129 -0.595 
111 161 159 
0.379577 0.0248129 -0.595 
117 164 161 
0.383057 0.0247712 -0.594 
123 164 161 
0.387175 0.0247712 -0.594 
120 158 156 
0.390635 0.0247295 -0.593 
121 166 164 
0.394746 0.0247295 -0.593 
121 166 164 
0.398857 0.0247295 -0.593 
121 166 164 
0.402969 0.0247295 -0.593 
121 166 164 
0.40708 0.0247295 -0.593 
121 166 164 
0.411885 0.0247712 -0.594 
121 166 164 
0.416003 0.0247712 -0.594 
121 166 164 
0.420121 0.0247712 -0.594 
121 166 164 
0.424954 0.0248129 -0.595 
121 166 164 
0.429079 0.0248129 -0.595 
121 166 164 
0.433932 0.0248546 -0.596 
121 166 164 
0.438064 0.0248546 -0.596 
121 166 164 
0.442196 0.0248546 -0.596 
121 166 164 
0.446328 0.0248546 -0.596 
121 166 164 
0.449704 0.0248129 -0.595 
121 166 164 
0.453067 0.0247712 -0.594 
121 166 164 
0.456415 0.0247295 -0.593 
121 166 164 
0.45975 0.0246878 -0.592 
121 166 164 
0.463071 0.0246461 -0.591 
121 166 164 
0.465587 0.0245627 -0.589 
121 166 164 
0.469671 0.0245627 -0.589 
121 166 164 
0.475363 0.0246461 -0.591 
121 166 164 
0.482706 0.0248129 -0.595 
121 166 164 
0.488467 0.0248963 -0.597 
121 166 164 
0.492606 0.0248963 -0.597 
121 166 164 
0.495913 0.0248546 -0.596 
121 166 164 
0.499206 0.0248129 -0.595 
121 166 164 
0.503331 0.0248129 -0.595 
121 166 164 
0.506604 0.0247712 -0.594 
121 166 164 
0.509862 0.0247295 -0.593 
121 166 164 
0.51224 0.0246461 -0.591 
121 166 164 
0.516337 0.0246461 -0.591 
121 166 164 
0.520435 0.0246461 -0.591 
121 166 164 
0.79864 0.0369483 -0.886 
121 166 164 
0.804782 0.0369483 -0.886 
121 166 164 
0.807264 0.0367815 -0.882 
121 166 164 
0.808768 0.036573 -0.877 
121 166 164 
0.805557 0.036156 -0.867 
121 166 164 
0.804079 0.0358224 -0.859 
117 169 167 
0.809092 0.0357807 -0.858 
117 169 167 
0.81789 0.0359058 -0.861 
117 169 167 
0.822903 0.0358641 -0.86 
117 169 167 
0.828865 0.0358641 -0.86 
117 169 167 
0.839681 0.0360726 -0.865 
117 169 167 
0.845678 0.0360726 -0.865 
117 169 167 
-0.431836 0.0208269 -0.599 
70 110 110 
-0.426969 0.0207921 -0.598 
72 110 108 
-0.422116 0.0207573 -0.597 
74 117 111 
-0.418677 0.0207921 -0.598 
67 110 106 
-0.415224 0.0208269 -0.599 
66 109 105 
-0.411758 0.0208616 -0.6 
61 112 105 
-0.407598 0.0208616 -0.6 
73 119 114 
-0.402766 0.0208269 -0.599 
69 111 110 
-0.398613 0.0208269 -0.599 
70 118 112 
-0.393801 0.0207921 -0.598 
65 113 103 
-0.389004 0.0207573 -0.597 
64 115 106 
-0.38422 0.0207225 -0.596 
58 111 102 
-0.380088 0.0207225 -0.596 
81 117 113 
-0.376587 0.0207573 -0.597 
77 115 109 
-0.373072 0.0207921 -0.598 
64 115 106 
-0.369543 0.0208269 -0.599 
65 119 114 
-0.36539 0.0208269 -0.599 
69 112 104 
-0.360634 0.0207921 -0.598 
72 114 104 
-0.355892 0.0207573 -0.597 
74 117 111 
-0.351164 0.0207225 -0.596 
69 117 109 
-0.347614 0.0207573 -0.597 
61 109 103 
-0.343475 0.0207573 -0.597 
66 114 106 
-0.339904 0.0207921 -0.598 
75 109 104 
-0.335758 0.0207921 -0.598 
78 114 108 
-0.332167 0.0208269 -0.599 
66 107 100 
-0.327466 0.0207921 -0.598 
66 107 100 
-0.32332 0.0207921 -0.598 
74 109 101 
-0.319174 0.0207921 -0.598 
69 113 102 
-0.315028 0.0207921 -0.598 
75 118 114 
-0.310883 0.0207921 -0.598 
74 110 104 
-0.306737 0.0207921 -0.598 
70 108 102 
-0.302591 0.0207921 -0.598 
64 108 97 
-0.298944 0.0208269 -0.599 
67 108 101 
-0.294791 0.0208269 -0.599 
74 111 102 
-0.291123 0.0208616 -0.6 
70 108 102 
-0.286963 0.0208616 -0.6 
74 112 108 
-0.281861 0.0207921 -0.598 
72 110 104 
-0.277715 0.0207921 -0.598 
67 110 102 
-0.273569 0.0207921 -0.598 
64 111 99 
-0.269423 0.0207921 -0.598 
70 112 100 
-0.265277 0.0207921 -0.598 
67 109 99 
-0.261568 0.0208269 -0.599 
71 109 103 
-0.256985 0.0207921 -0.598 
69 110 105 
-0.252839 0.0207921 -0.598 
76 119 111 
-0.248277 0.0207573 -0.597 
76 112 106 
-0.244138 0.0207573 -0.597 
71 109 103 
-0.239999 0.0207573 -0.597 
72 114 104 
-0.23586 0.0207573 -0.597 
68 110 100 
-0.23211 0.0207921 -0.598 
78 113 105 
-0.228345 0.0208269 -0.599 
72 115 107 
-0.224566 0.0208616 -0.6 
73 114 107 
-0.220774 0.0208964 -0.601 
68 112 101 
-0.216607 0.0208964 -0.601 
75 116 109 
-0.211733 0.0208269 -0.599 
72 115 109 
-0.207234 0.0207921 -0.598 
69 110 105 
-0.202409 0.0207225 -0.596 
77 114 105 
-0.197611 0.020653 -0.594 
77 112 102 
-0.19219 0.0205139 -0.59 
65 102 93 
-0.186824 0.0203749 -0.586 
59 89 79 
-0.18245 0.0203401 -0.585 
26 41 23 
-0.178394 0.0203401 -0.585 
18 27 9 
-0.174338 0.0203401 -0.585 
12 23 4 
-0.170282 0.0203401 -0.585 
12 21 12 
-0.165942 0.0203053 -0.584 
13 23 9 
-0.161339 0.0202358 -0.582 
14 24 10 
-0.156493 0.0201315 -0.579 
16 24 11 
-0.151952 0.0200619 -0.577 
15 23 10 
-0.147952 0.0200619 -0.577 
17 27 13 
-0.144201 0.0200967 -0.578 
15 24 15 
-0.140679 0.0201662 -0.58 
17 30 17 
-0.136658 0.0201662 -0.58 
21 26 12 
-0.132865 0.020201 -0.581 
17 22 8 
-0.128615 0.0201662 -0.58 
20 25 11 
-0.124594 0.0201662 -0.58 
14 22 9 
-0.120365 0.0201315 -0.579 
14 24 8 
-0.116351 0.0201315 -0.579 
13 26 11 
-0.112337 0.0201315 -0.579 
16 24 11 
-0.108322 0.0201315 -0.579 
20 26 9 
-0.104308 0.0201315 -0.579 
14 23 5 
-0.100294 0.0201315 -0.579 
22 31 13 
-0.0961134 0.0200967 -0.578 
38 45 21 
-0.0919468 0.0200619 -0.577 
40 44 19 
-0.0880989 0.0200967 -0.578 
19 29 17 
-0.0842371 0.0201315 -0.579 
43 52 32 
-0.0802229 0.0201315 -0.579 
35 42 20 
-0.076077 0.0200967 -0.578 
27 41 21 
-0.071945 0.0200619 -0.577 
20 28 15 
-0.0679447 0.0200619 -0.577 
19 29 13 
-0.0638335 0.0200272 -0.576 
18 28 14 
-0.0597362 0.0199924 -0.575 
20 30 16 
-0.0558467 0.0200272 -0.576 
18 28 14 
-0.0519433 0.0200619 -0.577 
13 25 15 
-0.0481091 0.0201315 -0.579 
18 31 16 
-0.0443233 0.0202358 -0.582 
19 33 13 
-0.0403575 0.0202705 -0.583 
22 36 16 
-0.0363156 0.0202705 -0.583 
17 31 11 
-0.0322736 0.0202705 -0.583 
19 32 15 
-0.0281833 0.0202358 -0.582 
20 30 14 
-0.0241067 0.020201 -0.581 
20 30 14 
-0.0200787 0.020201 -0.581 
20 30 14 
-0.0160506 0.020201 -0.581 
20 30 14 
-0.0120225 0.020201 -0.581 
21 31 17 
-0.0079944 0.020201 -0.581 
20 30 16 
-0.00395949 0.0201662 -0.58 
19 32 17 
6.1771e-05 0.020201 -0.581 
17 32 14 
0.0040969 0.0202358 -0.582 
19 32 15 
0.00815986 0.0203053 -0.584 
45 59 37 
0.0123133 0.0204792 -0.589 
65 80 55 
0.016536 0.020653 -0.594 
80 110 100 
0.020689 0.0206878 -0.595 
81 118 105 
0.0248142 0.0206878 -0.595 
97 139 127 
0.0289879 0.0207225 -0.596 
93 137 124 
0.0331756 0.0207573 -0.597 
96 140 129 
0.0373146 0.0207573 -0.597 
93 140 128 
0.0415231 0.0207921 -0.598 
88 135 121 
0.045669 0.0207921 -0.598 
97 141 130 
0.049815 0.0207921 -0.598 
92 140 130 
0.0539609 0.0207921 -0.598 
91 139 131 
0.0581069 0.0207921 -0.598 
92 140 130 
0.0622528 0.0207921 -0.598 
98 146 136 
0.0662877 0.0207573 -0.597 
94 143 130 
0.0704267 0.0207573 -0.597 
99 148 135 
0.0745657 0.0207573 -0.597 
94 141 129 
0.0787047 0.0207573 -0.597 
97 144 132 
0.0828438 0.0207573 -0.597 
105 152 140 
0.0869828 0.0207573 -0.597 
101 148 134 
0.0911218 0.0207573 -0.597 
107 151 140 
0.0952608 0.0207573 -0.597 
102 146 135 
0.0993998 0.0207573 -0.597 
96 145 132 
0.103539 0.0207573 -0.597 
98 145 131 
0.107678 0.0207573 -0.597 
107 151 140 
0.111817 0.0207573 -0.597 
102 144 134 
0.115956 0.0207573 -0.597 
110 149 140 
0.120095 0.0207573 -0.597 
109 146 137 
0.124026 0.0207225 -0.596 
105 142 133 
0.128158 0.0207225 -0.596 
111 148 137 
0.132512 0.0207573 -0.597 
109 148 139 
0.13688 0.0207921 -0.598 
107 146 137 
0.141026 0.0207921 -0.598 
107 146 135 
0.144929 0.0207573 -0.597 
104 146 134 
0.149068 0.0207573 -0.597 
109 148 139 
0.153464 0.0207921 -0.598 
105 146 139 
0.15761 0.0207921 -0.598 
108 151 143 
0.161485 0.0207573 -0.597 
109 155 150 
0.165624 0.0207573 -0.597 
105 151 144 
0.169763 0.0207573 -0.597 
106 152 143 
0.173902 0.0207573 -0.597 
104 146 136 
0.178339 0.0207921 -0.598 
107 149 139 
0.182485 0.0207921 -0.598 
114 153 142 
0.186631 0.0207921 -0.598 
119 156 145 
0.190777 0.0207921 -0.598 
106 145 134 
0.195249 0.0208269 -0.599 
111 152 145 
0.199735 0.0208616 -0.6 
104 152 146 
0.204234 0.0208964 -0.601 
104 147 143 
0.208054 0.0208616 -0.6 
105 146 141 
0.211861 0.0208269 -0.599 
110 154 143 
0.215653 0.0207921 -0.598 
114 155 148 
0.219431 0.0207573 -0.597 
116 154 148 
0.223196 0.0207225 -0.596 
113 152 143 
0.226946 0.0206878 -0.595 
114 148 143 
0.231072 0.0206878 -0.595 
108 139 135 
0.234801 0.020653 -0.594 
116 151 141 
0.23892 0.020653 -0.594 
120 155 147 
0.243447 0.0206878 -0.595 
114 151 140 
0.247572 0.0206878 -0.595 
117 151 146 
0.251697 0.0206878 -0.595 
116 151 139 
0.255822 0.0206878 -0.595 
114 153 144 
0.260385 0.0207225 -0.596 
113 151 145 
0.26496 0.0207573 -0.597 
114 150 146 
0.26955 0.0207921 -0.598 
114 152 146 
0.273696 0.0207921 -0.598 
109 148 139 
0.277842 0.0207921 -0.598 
115 152 143 
0.281988 0.0207921 -0.598 
119 156 145 
0.286134 0.0207921 -0.598 
114 153 144 
0.289795 0.0207573 -0.597 
119 156 147 
0.293934 0.0207573 -0.597 
118 157 148 
0.297573 0.0207225 -0.596 
114 152 146 
0.301705 0.0207225 -0.596 
120 163 159 
0.305837 0.0207225 -0.596 
114 156 157 
0.309969 0.0207225 -0.596 
108 154 156 
0.314102 0.0207225 -0.596 
115 160 160 
0.318768 0.0207573 -0.597 
119 164 162 
0.322907 0.0207573 -0.597 
108 161 154 
0.327593 0.0207921 -0.598 
109 149 149 
0.331739 0.0207921 -0.598 
122 163 160 
0.335885 0.0207921 -0.598 
115 157 158 
0.340031 0.0207921 -0.598 
122 166 171 
0.343602 0.0207573 -0.597 
117 158 164 
0.347158 0.0207225 -0.596 
120 162 163 
0.350701 0.0206878 -0.595 
119 169 165 
0.355422 0.0207225 -0.596 
116 157 154 
0.359554 0.0207225 -0.596 
120 166 168 
0.363687 0.0207225 -0.596 
115 164 165 
0.367819 0.0207225 -0.596 
118 164 166 
0.371327 0.0206878 -0.595 
115 163 157 
0.374821 0.020653 -0.594 
126 168 167 
0.378939 0.020653 -0.594 
120 166 161 
0.383057 0.020653 -0.594 
119 165 160 
0.387175 0.020653 -0.594 
120 166 161 
0.391294 0.020653 -0.594 
120 166 161 
0.395412 0.020653 -0.594 
120 166 161 
0.39953 0.020653 -0.594 
120 166 161 
0.403648 0.020653 -0.594 
120 166 161 
0.408453 0.0206878 -0.595 
120 166 161 
0.412578 0.0206878 -0.595 
120 166 161 
0.417404 0.0207225 -0.596 
120 166 161 
0.420828 0.0206878 -0.595 
120 166 161 
0.424954 0.0206878 -0.595 
120 166 161 
0.4298 0.0207225 -0.596 
120 166 161 
0.433932 0.0207225 -0.596 
120 166 161 
0.438064 0.0207225 -0.596 
120 166 161 
0.442196 0.0207225 -0.596 
120 166 161 
0.445579 0.0206878 -0.595 
120 166 161 
0.448949 0.020653 -0.594 
120 166 161 
0.451541 0.0205835 -0.592 
120 166 161 
0.454876 0.0205487 -0.591 
120 166 161 
0.458197 0.0205139 -0.59 
120 166 161 
0.461504 0.0204792 -0.589 
120 166 161 
0.465587 0.0204792 -0.589 
120 166 161 
0.469671 0.0204792 -0.589 
120 166 161 
0.475363 0.0205487 -0.591 
120 166 161 
0.481894 0.020653 -0.594 
120 166 161 
0.487649 0.0207225 -0.596 
120 166 161 
0.492606 0.0207573 -0.597 
120 166 161 
0.496745 0.0207573 -0.597 
120 166 161 
0.500045 0.0207225 -0.596 
120 166 161 
0.503331 0.0206878 -0.595 
126 169 163 
0.506604 0.020653 -0.594 
126 169 163 
0.509862 0.0206182 -0.593 
126 169 163 
0.513973 0.0206182 -0.593 
126 169 163 
0.516337 0.0205487 -0.591 
126 169 163 
0.520435 0.0205487 -0.591 
126 169 163 
0.79864 0.0308057 -0.886 
126 169 163 
0.803874 0.0307709 -0.885 
126 169 163 
0.806349 0.0306318 -0.881 
126 169 163 
0.806924 0.0304232 -0.875 
126 169 163 
0.805557 0.030145 -0.867 
126 169 163 
0.805952 0.0299364 -0.861 
126 169 163 
0.810035 0.0298669 -0.859 
126 169 163 
0.81694 0.0299017 -0.86 
126 169 163 
0.820032 0.0297974 -0.857 
126 169 163 
0.825974 0.0297974 -0.857 
126 169 163 
0.833857 0.0298669 -0.859 
126 169 163 
0.839812 0.0298669 -0.859 
126 169 163 
-0.431836 0.016674 -0.599 
62 112 110 
-0.426969 0.0166461 -0.598 
69 111 110 
-0.422823 0.0166461 -0.598 
75 118 114 
-0.418677 0.0166461 -0.598 
66 112 107 
-0.415224 0.016674 -0.599 
71 114 106 
-0.411758 0.0167018 -0.6 
74 111 102 
-0.407598 0.0167018 -0.6 
77 115 109 
-0.402766 0.016674 -0.599 
75 113 111 
-0.398613 0.016674 -0.599 
68 116 110 
-0.393801 0.0166461 -0.598 
64 115 106 
-0.389004 0.0166183 -0.597 
66 114 106 
-0.38422 0.0165905 -0.596 
70 118 112 
-0.380088 0.0165905 -0.596 
70 116 111 
-0.376587 0.0166183 -0.597 
69 110 105 
-0.373072 0.0166461 -0.598 
71 117 110 
-0.369543 0.016674 -0.599 
70 116 109 
-0.36539 0.016674 -0.599 
74 125 114 
-0.360634 0.0166461 -0.598 
70 121 112 
-0.356488 0.0166461 -0.598 
73 124 117 
-0.351753 0.0166183 -0.597 
69 111 101 
-0.348196 0.0166461 -0.598 
62 110 100 
-0.34405 0.0166461 -0.598 
65 113 107 
-0.339904 0.0166461 -0.598 
64 112 104 
-0.33632 0.016674 -0.599 
64 112 102 
-0.332167 0.016674 -0.599 
66 109 103 
-0.328561 0.0167018 -0.6 
66 108 96 
-0.324402 0.0167018 -0.6 
74 113 102 
-0.319708 0.016674 -0.599 
69 112 106 
-0.315555 0.016674 -0.599 
78 121 117 
-0.311402 0.016674 -0.599 
67 113 104 
-0.30725 0.016674 -0.599 
66 112 103 
-0.303097 0.016674 -0.599 
66 112 103 
-0.299443 0.0167018 -0.6 
79 111 104 
-0.295283 0.0167018 -0.6 
73 109 103 
-0.291123 0.0167018 -0.6 
69 110 103 
-0.286963 0.0167018 -0.6 
70 111 104 
-0.282332 0.016674 -0.599 
72 111 98 
-0.277715 0.0166461 -0.598 
67 106 93 
-0.273569 0.0166461 -0.598 
67 106 95 
-0.269874 0.016674 -0.599 
68 109 102 
-0.265721 0.016674 -0.599 
69 113 102 
-0.261568 0.016674 -0.599 
66 109 101 
-0.257415 0.016674 -0.599 
81 112 108 
-0.252839 0.0166461 -0.598 
72 110 104 
-0.248277 0.0166183 -0.597 
71 109 105 
-0.244138 0.0166183 -0.597 
69 112 104 
-0.240401 0.0166461 -0.598 
73 116 108 
-0.236651 0.016674 -0.599 
64 111 99 
-0.232886 0.0167018 -0.6 
71 114 106 
-0.228726 0.0167018 -0.6 
66 112 103 
-0.22494 0.0167296 -0.601 
69 115 108 
-0.220774 0.0167296 -0.601 
64 110 103 
-0.216247 0.0167018 -0.6 
72 113 106 
-0.211733 0.016674 -0.599 
73 116 108 
-0.207234 0.0166461 -0.598 
71 114 106 
-0.202748 0.0166183 -0.597 
74 117 109 
-0.197611 0.0165348 -0.594 
73 115 105 
-0.19219 0.0164234 -0.59 
62 103 96 
-0.186824 0.0163121 -0.586 
58 82 70 
-0.182138 0.0162564 -0.584 
39 51 27 
-0.178089 0.0162564 -0.584 
22 24 15 
-0.17404 0.0162564 -0.584 
15 23 10 
-0.169991 0.0162564 -0.584 
13 23 11 
-0.165374 0.0162008 -0.582 
15 23 12 
-0.160784 0.0161451 -0.58 
15 25 11 
-0.156223 0.0160894 -0.578 
15 23 8 
-0.151952 0.0160616 -0.577 
13 26 11 
-0.148208 0.0160894 -0.578 
13 26 13 
-0.14445 0.0161172 -0.579 
15 28 15 
-0.140679 0.0161451 -0.58 
17 30 15 
-0.136658 0.0161451 -0.58 
20 22 13 
-0.132636 0.0161451 -0.58 
16 24 9 
-0.128615 0.0161451 -0.58 
17 22 8 
-0.124594 0.0161451 -0.58 
15 23 8 
-0.120365 0.0161172 -0.579 
12 25 8 
-0.11615 0.0160894 -0.578 
11 25 14 
-0.112143 0.0160894 -0.578 
12 27 13 
-0.108135 0.0160894 -0.578 
15 23 10 
-0.104128 0.0160894 -0.578 
14 24 10 
-0.0999475 0.0160616 -0.577 
17 27 15 
-0.0959472 0.0160616 -0.577 
29 31 18 
-0.0917875 0.0160337 -0.576 
53 67 29 
-0.0882513 0.0161172 -0.579 
62 77 34 
-0.0846735 0.0162008 -0.582 
53 67 31 
-0.0807771 0.0162286 -0.583 
35 47 21 
-0.0766035 0.0162008 -0.582 
22 27 13 
-0.0721944 0.0161172 -0.579 
22 27 13 
-0.0678269 0.0160337 -0.576 
18 28 12 
-0.0637227 0.0160059 -0.575 
18 31 14 
-0.0597362 0.0160059 -0.575 
19 29 13 
-0.0559436 0.0160616 -0.577 
19 29 13 
-0.0521233 0.0161172 -0.579 
18 28 14 
-0.0481922 0.0161451 -0.58 
20 30 18 
-0.0442472 0.0161729 -0.581 
19 32 17 
-0.0402883 0.0162008 -0.582 
19 33 13 
-0.0363156 0.0162286 -0.583 
18 31 14 
-0.0322183 0.0162008 -0.582 
19 32 17 
-0.0281833 0.0162008 -0.582 
19 32 17 
-0.0241067 0.0161729 -0.581 
20 30 16 
-0.0200787 0.0161729 -0.581 
22 32 16 
-0.016023 0.0161451 -0.58 
21 31 15 
-0.0120018 0.0161451 -0.58 
21 31 15 
-0.00798064 0.0161451 -0.58 
18 33 15 
-0.00395949 0.0161451 -0.58 
16 31 15 
6.16647e-05 0.0161451 -0.58 
15 32 16 
0.0040969 0.0162008 -0.582 
24 39 25 
0.00815986 0.0162564 -0.584 
42 58 35 
0.0123133 0.0163956 -0.589 
71 82 61 
0.0164803 0.0164791 -0.592 
82 107 98 
0.0206542 0.0165348 -0.594 
82 121 110 
0.0248142 0.0165626 -0.595 
96 138 124 
0.0289879 0.0165905 -0.596 
93 142 125 
0.0331756 0.0166183 -0.597 
91 140 125 
0.0373146 0.0166183 -0.597 
93 142 129 
0.0415231 0.0166461 -0.598 
93 137 124 
0.045669 0.0166461 -0.598 
97 141 130 
0.049815 0.0166461 -0.598 
95 141 132 
0.0538707 0.0166183 -0.597 
92 138 129 
0.0580097 0.0166183 -0.597 
90 139 126 
0.0621487 0.0166183 -0.597 
95 141 132 
0.0662877 0.0166183 -0.597 
97 143 134 
0.0704267 0.0166183 -0.597 
97 145 135 
0.0745657 0.0166183 -0.597 
101 142 135 
0.0787047 0.0166183 -0.597 
101 143 131 
0.0828438 0.0166183 -0.597 
100 144 131 
0.0869828 0.0166183 -0.597 
101 143 133 
0.0911218 0.0166183 -0.597 
100 142 132 
0.0951013 0.0165905 -0.596 
101 143 131 
0.0992333 0.0165905 -0.596 
94 143 126 
0.103365 0.0165905 -0.596 
101 150 133 
0.107497 0.0165905 -0.596 
101 148 136 
0.111817 0.0166183 -0.597 
100 144 133 
0.115956 0.0166183 -0.597 
101 145 134 
0.120095 0.0166183 -0.597 
100 144 133 
0.124026 0.0165905 -0.596 
105 147 135 
0.128158 0.0165905 -0.596 
109 148 137 
0.132512 0.0166183 -0.597 
108 150 138 
0.136651 0.0166183 -0.597 
98 140 130 
0.14079 0.0166183 -0.597 
109 151 139 
0.144929 0.0166183 -0.597 
105 147 137 
0.149068 0.0166183 -0.597 
111 150 141 
0.153207 0.0166183 -0.597 
112 151 142 
0.15761 0.0166461 -0.598 
107 148 141 
0.161756 0.0166461 -0.598 
107 153 146 
0.165901 0.0166461 -0.598 
107 150 144 
0.170047 0.0166461 -0.598 
109 151 141 
0.174193 0.0166461 -0.598 
109 151 141 
0.178638 0.016674 -0.599 
106 153 141 
0.18279 0.016674 -0.599 
104 148 137 
0.186943 0.016674 -0.599 
110 152 140 
0.191096 0.016674 -0.599 
114 156 144 
0.195249 0.016674 -0.599 
111 153 143 
0.199402 0.016674 -0.599 
113 159 152 
0.203895 0.0167018 -0.6 
115 156 151 
0.207708 0.016674 -0.599 
116 154 150 
0.211507 0.0166461 -0.598 
109 145 139 
0.215292 0.0166183 -0.597 
114 148 143 
0.219431 0.0166183 -0.597 
119 154 146 
0.223196 0.0165905 -0.596 
113 150 139 
0.226946 0.0165626 -0.595 
115 151 145 
0.230683 0.0165348 -0.594 
112 150 148 
0.234801 0.0165348 -0.594 
114 152 146 
0.238517 0.016507 -0.593 
114 155 148 
0.242629 0.016507 -0.593 
112 153 148 
0.247156 0.0165348 -0.594 
111 149 143 
0.251274 0.0165348 -0.594 
117 152 144 
0.255822 0.0165626 -0.595 
119 154 144 
0.260385 0.0165905 -0.596 
117 155 149 
0.264517 0.0165905 -0.596 
113 151 145 
0.269099 0.0166183 -0.597 
117 151 146 
0.273238 0.0166183 -0.597 
107 150 144 
0.277842 0.0166461 -0.598 
114 155 148 
0.281988 0.0166461 -0.598 
120 157 148 
0.286134 0.0166461 -0.598 
118 155 146 
0.289795 0.0166183 -0.597 
126 158 147 
0.293934 0.0166183 -0.597 
119 154 142 
0.297573 0.0165905 -0.596 
116 151 152 
0.301705 0.0165905 -0.596 
121 159 153 
0.305837 0.0165905 -0.596 
115 158 152 
0.31049 0.0166183 -0.597 
117 159 149 
0.314629 0.0166183 -0.597 
122 158 152 
0.318768 0.0166183 -0.597 
119 158 163 
0.323448 0.0166461 -0.598 
117 157 159 
0.328141 0.016674 -0.599 
122 159 150 
0.332849 0.0167018 -0.6 
126 165 156 
0.337009 0.0167018 -0.6 
121 164 156 
0.3406 0.016674 -0.599 
117 165 157 
0.343602 0.0166183 -0.597 
115 166 159 
0.346576 0.0165626 -0.595 
117 157 159 
0.350701 0.0165626 -0.595 
117 163 167 
0.354826 0.0165626 -0.595 
113 160 157 
0.359554 0.0165905 -0.596 
114 166 164 
0.363687 0.0165905 -0.596 
117 163 165 
0.367819 0.0165905 -0.596 
114 159 157 
0.371327 0.0165626 -0.595 
125 166 161 
0.374821 0.0165348 -0.594 
119 160 157 
0.378939 0.0165348 -0.594 
124 165 162 
0.383702 0.0165626 -0.595 
129 171 170 
0.387827 0.0165626 -0.595 
130 170 170 
0.392611 0.0165905 -0.596 
130 170 170 
0.396743 0.0165905 -0.596 
130 170 170 
0.400875 0.0165905 -0.596 
130 170 170 
0.405007 0.0165905 -0.596 
130 170 170 
0.409139 0.0165905 -0.596 
130 170 170 
0.413272 0.0165905 -0.596 
130 170 170 
0.417404 0.0165905 -0.596 
130 170 170 
0.421536 0.0165905 -0.596 
130 170 170 
0.425668 0.0165905 -0.596 
130 170 170 
0.4298 0.0165905 -0.596 
130 170 170 
0.43466 0.0166183 -0.597 
130 170 170 
0.438799 0.0166183 -0.597 
130 170 170 
0.442938 0.0166183 -0.597 
130 170 170 
0.445579 0.0165626 -0.595 
130 170 170 
0.448193 0.016507 -0.593 
130 170 170 
0.450779 0.0164513 -0.591 
130 170 170 
0.454106 0.0164234 -0.59 
121 166 164 
0.45742 0.0163956 -0.589 
121 166 164 
0.461504 0.0163956 -0.589 
121 166 164 
0.465587 0.0163956 -0.589 
121 166 164 
0.470468 0.0164234 -0.59 
121 166 164 
0.475363 0.0164513 -0.591 
121 166 164 
0.479461 0.0164513 -0.591 
121 166 164 
0.486013 0.0165348 -0.594 
121 166 164 
0.490956 0.0165626 -0.595 
121 166 164 
0.495081 0.0165626 -0.595 
121 166 164 
0.499206 0.0165626 -0.595 
121 166 164 
0.502486 0.0165348 -0.594 
121 166 164 
0.505751 0.016507 -0.593 
121 166 164 
0.510722 0.0165348 -0.594 
121 166 164 
0.51484 0.0165348 -0.594 
121 166 164 
0.518958 0.0165348 -0.594 
121 166 164 
0.523077 0.0165348 -0.594 
121 166 164 
0.79864 0.024663 -0.886 
121 166 164 
0.803874 0.0246352 -0.885 
121 166 164 
0.803603 0.0244403 -0.878 
121 166 164 
0.804157 0.0242733 -0.872 
121 166 164 
0.806486 0.0241619 -0.868 
121 166 164 
0.809696 0.0240784 -0.865 
121 166 164 
0.812864 0.0239949 -0.862 
121 166 164 
0.81694 0.0239393 -0.86 
121 166 164 
0.819075 0.0238279 -0.856 
121 166 164 
0.823082 0.0237722 -0.854 
121 166 164 
0.831915 0.0238558 -0.857 
121 166 164 
0.837857 0.0238558 -0.857 
121 166 164 
-0.431115 0.0125002 -0.598 
68 118 116 
-0.426969 0.0125002 -0.598 
68 118 114 
-0.422823 0.0125002 -0.598 
64 114 110 
-0.418677 0.0125002 -0.598 
71 114 108 
-0.414531 0.0125002 -0.598 
70 115 113 
-0.411072 0.0125211 -0.599 
75 116 111 
-0.406919 0.0125211 -0.599 
70 117 105 
-0.402766 0.0125211 -0.599 
74 117 109 
-0.397947 0.0125002 -0.598 
67 108 103 
-0.393801 0.0125002 -0.598 
70 111 106 
-0.389004 0.0124793 -0.597 
64 112 106 
-0.384865 0.0124793 -0.597 
74 119 117 
-0.380726 0.0124793 -0.597 
73 114 111 
-0.376587 0.0124793 -0.597 
66 114 108 
-0.373696 0.0125211 -0.599 
64 114 110 
-0.369543 0.0125211 -0.599 
61 110 111 
-0.36539 0.0125211 -0.599 
74 117 113 
-0.361237 0.0125211 -0.599 
75 115 117 
-0.357084 0.0125211 -0.599 
80 115 116 
-0.352931 0.0125211 -0.599 
77 113 107 
-0.348778 0.0125211 -0.599 
76 117 110 
-0.345201 0.012542 -0.6 
79 115 113 
-0.341041 0.012542 -0.6 
80 116 110 
-0.336881 0.012542 -0.6 
77 112 104 
-0.332721 0.012542 -0.6 
74 115 108 
-0.329109 0.0125629 -0.601 
72 114 102 
-0.324402 0.012542 -0.6 
75 114 101 
-0.320242 0.012542 -0.6 
76 113 100 
-0.315555 0.0125211 -0.599 
73 115 105 
-0.311402 0.0125211 -0.599 
74 117 109 
-0.30725 0.0125211 -0.599 
75 114 105 
-0.303603 0.012542 -0.6 
69 111 101 
-0.299443 0.012542 -0.6 
69 111 99 
-0.295283 0.012542 -0.6 
68 112 99 
-0.291123 0.012542 -0.6 
73 115 103 
-0.286963 0.012542 -0.6 
72 114 102 
-0.282332 0.0125211 -0.599 
71 110 99 
-0.278179 0.0125211 -0.599 
67 109 97 
-0.274026 0.0125211 -0.599 
68 112 101 
-0.269874 0.0125211 -0.599 
69 108 99 
-0.265721 0.0125211 -0.599 
74 117 111 
-0.262004 0.012542 -0.6 
73 116 110 
-0.257845 0.012542 -0.6 
67 108 103 
-0.253262 0.0125211 -0.599 
72 111 102 
-0.248277 0.0124793 -0.597 
81 116 108 
-0.244138 0.0124793 -0.597 
69 116 104 
-0.240803 0.0125211 -0.599 
72 116 105 
-0.237046 0.012542 -0.6 
72 113 106 
-0.233274 0.0125629 -0.601 
69 110 103 
-0.229107 0.0125629 -0.601 
68 111 105 
-0.22494 0.0125629 -0.601 
85 120 112 
-0.220406 0.012542 -0.6 
77 116 107 
-0.215886 0.0125211 -0.599 
71 110 101 
-0.21138 0.0125002 -0.598 
77 116 107 
-0.206887 0.0124793 -0.597 
75 116 109 
-0.202409 0.0124584 -0.596 
81 117 111 
-0.197611 0.0124166 -0.594 
80 116 110 
-0.19219 0.012333 -0.59 
61 99 93 
-0.186824 0.0122493 -0.586 
37 57 54 
-0.181826 0.0121866 -0.583 
37 39 23 
-0.177784 0.0121866 -0.583 
22 27 13 
-0.173742 0.0121866 -0.583 
13 21 10 
-0.1697 0.0121866 -0.583 
15 23 12 
-0.16509 0.0121448 -0.581 
12 22 10 
-0.160784 0.0121239 -0.58 
16 24 11 
-0.156493 0.012103 -0.579 
15 23 8 
-0.152479 0.012103 -0.579 
20 22 6 
-0.148465 0.012103 -0.579 
15 25 11 
-0.14445 0.012103 -0.579 
13 23 7 
-0.140679 0.0121239 -0.58 
17 30 13 
-0.136658 0.0121239 -0.58 
19 27 12 
-0.132636 0.0121239 -0.58 
15 23 10 
-0.128394 0.012103 -0.579 
15 23 10 
-0.124164 0.0120821 -0.578 
18 26 13 
-0.120157 0.0120821 -0.578 
13 26 11 
-0.11615 0.0120821 -0.578 
13 26 11 
