ply
format ascii 1.0
comment pointcloud saved from Realsense Viewer
element vertex 2492
property float32 x
property float32 y
property float32 z
property uchar red
property uchar green
property uchar blue
end_header
0.0454749 0.159037 -0.468 
51 114 124 
0.0486155 0.158697 -0.467 
52 111 120 
0.0518532 0.158697 -0.467 
55 112 119 
0.0550909 0.158697 -0.467 
58 113 121 
0.0584535 0.159037 -0.468 
61 117 127 
0.0616982 0.159037 -0.468 
56 113 120 
0.0650816 0.159377 -0.469 
58 115 120 
0.0683332 0.159377 -0.469 
60 112 119 
0.0715848 0.159377 -0.469 
51 117 126 
0.0748364 0.159377 -0.469 
67 127 131 
0.0779215 0.159037 -0.468 
60 120 124 
0.0811661 0.159037 -0.468 
61 118 123 
0.0844108 0.159037 -0.468 
64 114 122 
0.0874681 0.158697 -0.467 
59 111 120 
0.0907059 0.158697 -0.467 
61 109 119 
0.0937424 0.158357 -0.466 
66 117 129 
0.0971813 0.158697 -0.467 
59 113 126 
0.100419 0.158697 -0.467 
62 118 121 
0.103657 0.158697 -0.467 
57 113 116 
0.106666 0.158357 -0.466 
72 111 120 
0.109896 0.158357 -0.466 
60 100 102 
0.113127 0.158357 -0.466 
52 66 68 
0.116358 0.158357 -0.466 
48 63 62 
0.119589 0.158357 -0.466 
48 56 55 
0.12282 0.158357 -0.466 
50 51 47 
0.12605 0.158357 -0.466 
49 49 45 
0.129281 0.158357 -0.466 
57 54 51 
0.132796 0.158697 -0.467 
58 59 50 
0.136034 0.158697 -0.467 
60 51 46 
0.139272 0.158697 -0.467 
87 88 84 
0.142815 0.159037 -0.468 
56 59 58 
0.146371 0.159377 -0.469 
61 63 54 
0.149623 0.159377 -0.469 
63 68 58 
0.152874 0.159377 -0.469 
68 85 86 
0.155793 0.159037 -0.468 
93 117 115 
0.158698 0.158697 -0.467 
90 137 136 
0.162283 0.159037 -0.468 
85 132 131 
0.165173 0.158697 -0.467 
81 134 136 
0.168051 0.158357 -0.466 
71 137 146 
0.170914 0.158017 -0.465 
75 131 143 
0.174138 0.158017 -0.465 
80 134 145 
0.177362 0.158017 -0.465 
77 133 145 
0.180197 0.157678 -0.464 
82 127 138 
0.183414 0.157678 -0.464 
75 123 131 
0.186631 0.157678 -0.464 
74 124 134 
0.189848 0.157678 -0.464 
78 127 132 
0.193481 0.158017 -0.465 
78 127 132 
0.196705 0.158017 -0.465 
73 127 138 
0.199928 0.158017 -0.465 
68 127 136 
0.203152 0.158017 -0.465 
79 131 138 
0.205489 0.157338 -0.463 
85 130 141 
0.208699 0.157338 -0.463 
80 128 138 
0.211451 0.156998 -0.462 
85 133 143 
0.214654 0.156998 -0.462 
89 141 150 
0.217857 0.156998 -0.462 
80 134 145 
0.221539 0.157338 -0.463 
78 130 139 
0.224263 0.156998 -0.462 
80 130 138 
0.227959 0.157338 -0.463 
88 140 147 
0.231168 0.157338 -0.463 
83 133 143 
0.234378 0.157338 -0.463 
81 129 139 
0.237588 0.157338 -0.463 
82 134 141 
0.241319 0.157678 -0.464 
84 141 148 
0.244535 0.157678 -0.464 
81 131 141 
0.248286 0.158017 -0.465 
87 136 141 
0.250969 0.157678 -0.464 
89 143 154 
0.254186 0.157678 -0.464 
91 139 147 
0.257403 0.157678 -0.464 
90 145 153 
0.260058 0.157338 -0.463 
95 145 153 
0.263268 0.157338 -0.463 
103 148 159 
0.266478 0.157338 -0.463 
95 146 160 
0.269688 0.157338 -0.463 
92 139 152 
0.272309 0.156998 -0.462 
96 141 152 
0.275512 0.156998 -0.462 
93 143 153 
0.278715 0.156998 -0.462 
100 138 152 
0.281918 0.156998 -0.462 
100 140 153 
0.285121 0.156998 -0.462 
97 145 155 
0.288948 0.157338 -0.463 
105 148 160 
0.292789 0.157678 -0.464 
101 146 157 
0.296006 0.157678 -0.464 
102 145 157 
0.299868 0.158017 -0.465 
107 150 162 
0.30244 0.157678 -0.464 
107 150 162 
0.304998 0.157338 -0.463 
107 150 162 
0.307543 0.156998 -0.462 
107 150 162 
0.310073 0.156658 -0.461 
107 150 162 
0.31259 0.156318 -0.46 
107 150 162 
0.315779 0.156318 -0.46 
107 150 162 
0.318968 0.156318 -0.46 
107 150 162 
0.322157 0.156318 -0.46 
107 150 162 
0.326054 0.156658 -0.461 
107 150 162 
0.329964 0.156998 -0.462 
107 150 162 
0.333888 0.157338 -0.463 
107 150 162 
0.337826 0.157678 -0.464 
107 150 162 
0.341043 0.157678 -0.464 
112 155 165 
0.34426 0.157678 -0.464 
112 155 165 
0.346728 0.157338 -0.463 
112 155 165 
0.348426 0.156658 -0.461 
112 155 165 
0.351623 0.156658 -0.461 
112 155 165 
0.354819 0.156658 -0.461 
112 155 165 
0.358791 0.156998 -0.462 
112 155 165 
0.361995 0.156998 -0.462 
112 155 165 
0.364407 0.156658 -0.461 
112 155 165 
0.367603 0.156658 -0.461 
112 155 165 
0.369995 0.156318 -0.46 
112 155 165 
0.373184 0.156318 -0.46 
112 155 165 
0.376373 0.156318 -0.46 
112 155 165 
0.380388 0.156658 -0.461 
112 155 165 
0.383584 0.156658 -0.461 
112 155 165 
0.38678 0.156658 -0.461 
112 155 165 
0.389976 0.156658 -0.461 
112 155 165 
0.392319 0.156318 -0.46 
112 155 165 
0.395509 0.156318 -0.46 
112 155 165 
0.398698 0.156318 -0.46 
112 155 165 
0.402761 0.156658 -0.461 
112 155 165 
0.405957 0.156658 -0.461 
112 155 165 
0.408265 0.156318 -0.46 
112 155 165 
0.411454 0.156318 -0.46 
112 155 165 
0.413742 0.155978 -0.459 
112 155 165 
0.416925 0.155978 -0.459 
112 155 165 
0.421022 0.156318 -0.46 
112 155 165 
0.425133 0.156658 -0.461 
112 155 165 
0.42833 0.156658 -0.461 
112 155 165 
0.431526 0.156658 -0.461 
112 155 165 
0.435665 0.156998 -0.462 
112 155 165 
0.438868 0.156998 -0.462 
112 155 165 
0.442071 0.156998 -0.462 
112 155 165 
0.445274 0.156998 -0.462 
112 155 165 
0.448477 0.156998 -0.462 
112 155 165 
0.45168 0.156998 -0.462 
112 155 165 
-0.342823 0.156791 -0.471 
79 139 155 
-0.339557 0.156791 -0.471 
74 137 149 
-0.336292 0.156791 -0.471 
76 139 149 
-0.333733 0.157124 -0.472 
74 142 152 
-0.330461 0.157124 -0.472 
71 136 150 
-0.327188 0.157124 -0.472 
77 139 154 
-0.323916 0.157124 -0.472 
72 136 155 
-0.320644 0.157124 -0.472 
73 139 159 
-0.316699 0.156791 -0.471 
72 137 153 
-0.313433 0.156791 -0.471 
77 135 151 
-0.30951 0.156458 -0.47 
72 130 146 
-0.305599 0.156125 -0.469 
63 135 149 
-0.302348 0.156125 -0.469 
69 140 147 
-0.299096 0.156125 -0.469 
78 140 155 
-0.296475 0.156458 -0.47 
65 131 142 
-0.293217 0.156458 -0.47 
75 135 151 
-0.289958 0.156458 -0.47 
64 138 149 
-0.2867 0.156458 -0.47 
60 139 150 
-0.284044 0.156791 -0.471 
74 142 152 
-0.280779 0.156791 -0.471 
67 130 142 
-0.278103 0.157124 -0.472 
70 133 145 
-0.27483 0.157124 -0.472 
66 136 148 
-0.272133 0.157457 -0.473 
70 129 142 
-0.268854 0.157457 -0.473 
76 135 148 
-0.265013 0.157124 -0.472 
111 147 157 
-0.261741 0.157124 -0.472 
83 128 139 
-0.257921 0.156791 -0.471 
65 138 145 
-0.254655 0.156791 -0.471 
85 139 152 
-0.25139 0.156791 -0.471 
81 140 149 
-0.248124 0.156791 -0.471 
80 139 150 
-0.244859 0.156791 -0.471 
79 138 149 
-0.241594 0.156791 -0.471 
71 132 143 
-0.238834 0.157124 -0.472 
72 131 140 
-0.235562 0.157124 -0.472 
66 125 136 
-0.231797 0.156791 -0.471 
63 126 136 
-0.228532 0.156791 -0.471 
64 130 139 
-0.225266 0.156791 -0.471 
60 126 137 
-0.222001 0.156791 -0.471 
60 126 137 
-0.218735 0.156791 -0.471 
63 122 131 
-0.215012 0.156458 -0.47 
69 125 135 
-0.211754 0.156458 -0.47 
60 123 135 
-0.208495 0.156458 -0.47 
62 127 141 
-0.205674 0.156791 -0.471 
65 128 140 
-0.202408 0.156791 -0.471 
59 129 141 
-0.199143 0.156791 -0.471 
59 126 139 
-0.195877 0.156791 -0.471 
60 126 137 
-0.192612 0.156791 -0.471 
61 129 139 
-0.189346 0.156791 -0.471 
57 129 141 
-0.185686 0.156458 -0.47 
56 128 140 
-0.182427 0.156458 -0.47 
60 122 137 
-0.179169 0.156458 -0.47 
58 119 132 
-0.17591 0.156458 -0.47 
58 121 133 
-0.172652 0.156458 -0.47 
56 117 128 
-0.169754 0.156791 -0.471 
58 124 131 
-0.166488 0.156791 -0.471 
53 119 130 
-0.163223 0.156791 -0.471 
61 120 133 
-0.159957 0.156791 -0.471 
58 121 131 
-0.156692 0.156791 -0.471 
59 127 135 
-0.153426 0.156791 -0.471 
55 121 128 
-0.150161 0.156791 -0.471 
53 116 124 
-0.146583 0.156458 -0.47 
56 122 129 
-0.14302 0.156125 -0.469 
54 120 127 
-0.13947 0.155792 -0.468 
61 121 127 
-0.136226 0.155792 -0.468 
60 120 126 
-0.132981 0.155792 -0.468 
55 115 121 
-0.130014 0.156125 -0.469 
58 115 122 
-0.126762 0.156125 -0.469 
57 114 121 
-0.12351 0.156125 -0.469 
56 115 124 
-0.120259 0.156125 -0.469 
53 114 123 
-0.117007 0.156125 -0.469 
61 120 129 
-0.113998 0.156458 -0.47 
59 118 127 
-0.11074 0.156458 -0.47 
55 118 130 
-0.107253 0.156125 -0.469 
53 116 126 
-0.104001 0.156125 -0.469 
47 115 123 
-0.100749 0.156125 -0.469 
50 123 132 
-0.0974978 0.156125 -0.469 
50 121 130 
-0.0944471 0.156458 -0.47 
47 115 123 
-0.0913826 0.156791 -0.471 
58 121 129 
-0.0879301 0.156458 -0.47 
50 112 118 
-0.0846716 0.156458 -0.47 
56 113 118 
-0.0812398 0.156125 -0.469 
55 114 123 
-0.0779882 0.156125 -0.469 
48 116 124 
-0.0747367 0.156125 -0.469 
53 115 121 
-0.0714851 0.156125 -0.469 
57 118 127 
-0.0682335 0.156125 -0.469 
46 112 119 
-0.0651205 0.156458 -0.47 
53 116 124 
-0.0618619 0.156458 -0.47 
48 116 122 
-0.0586034 0.156458 -0.47 
52 117 117 
-0.0552271 0.156125 -0.469 
55 113 115 
-0.0519755 0.156125 -0.469 
55 112 117 
-0.048724 0.156125 -0.469 
57 114 119 
-0.0454724 0.156125 -0.469 
52 114 120 
-0.0422208 0.156125 -0.469 
55 119 124 
-0.0389692 0.156125 -0.469 
50 112 118 
-0.0357176 0.156125 -0.469 
52 115 123 
-0.032466 0.156125 -0.469 
55 118 126 
-0.0292767 0.156458 -0.47 
51 114 124 
-0.0260736 0.156791 -0.471 
49 112 120 
-0.0228081 0.156791 -0.471 
59 118 127 
-0.0195012 0.156458 -0.47 
57 113 123 
-0.0162081 0.156125 -0.469 
55 114 123 
-0.0129565 0.156125 -0.469 
55 114 125 
-0.0097049 0.156125 -0.469 
57 113 123 
-0.00645331 0.156125 -0.469 
50 121 130 
-0.0031949 0.155792 -0.468 
51 121 133 
4.96507e-05 0.155459 -0.467 
54 122 132 
0.00328737 0.155459 -0.467 
62 118 130 
0.00653907 0.155792 -0.468 
51 114 126 
0.00978372 0.155792 -0.468 
47 118 127 
0.0130284 0.155792 -0.468 
51 120 137 
0.016273 0.155792 -0.468 
48 119 136 
0.0195177 0.155792 -0.468 
51 120 137 
0.0227623 0.155792 -0.468 
53 119 137 
0.026007 0.155792 -0.468 
63 130 145 
0.0292516 0.155792 -0.468 
49 127 141 
0.0324963 0.155792 -0.468 
53 131 145 
0.035741 0.155792 -0.468 
50 134 148 
0.0389856 0.155792 -0.468 
47 131 152 
0.0422303 0.155792 -0.468 
50 133 154 
0.0453778 0.155459 -0.467 
47 131 150 
0.0486155 0.155459 -0.467 
46 133 151 
0.0518532 0.155459 -0.467 
46 131 147 
0.0550909 0.155459 -0.467 
47 131 150 
0.0583286 0.155459 -0.467 
49 133 152 
0.0616982 0.155792 -0.468 
48 131 150 
0.0649429 0.155792 -0.468 
46 133 151 
0.0683332 0.156125 -0.469 
46 130 149 
0.0715848 0.156125 -0.469 
47 128 145 
0.0748364 0.156125 -0.469 
55 128 144 
0.078088 0.156125 -0.469 
65 134 151 
0.0811661 0.155792 -0.468 
57 128 147 
0.0842304 0.155459 -0.467 
60 124 143 
0.0874681 0.155459 -0.467 
50 124 137 
0.0907059 0.155459 -0.467 
56 133 145 
0.0937424 0.155126 -0.466 
47 136 153 
0.0969732 0.155126 -0.466 
61 139 155 
0.100204 0.155126 -0.466 
40 84 98 
0.103657 0.155459 -0.467 
45 57 59 
0.106666 0.155126 -0.466 
40 48 45 
0.109896 0.155126 -0.466 
43 50 44 
0.113127 0.155126 -0.466 
45 46 35 
0.116358 0.155126 -0.466 
50 46 37 
0.119332 0.154794 -0.465 
45 46 35 
0.122556 0.154794 -0.465 
41 43 32 
0.12578 0.154794 -0.465 
42 43 32 
0.129281 0.155126 -0.466 
47 45 37 
0.132512 0.155126 -0.466 
71 64 56 
0.135743 0.155126 -0.466 
52 45 35 
0.139272 0.155459 -0.467 
53 44 35 
0.142509 0.155459 -0.467 
68 58 46 
0.146059 0.155792 -0.468 
47 43 32 
0.149304 0.155792 -0.468 
52 48 37 
0.152549 0.155792 -0.468 
50 46 35 
0.15546 0.155459 -0.467 
51 47 36 
0.158698 0.155459 -0.467 
57 53 42 
0.161936 0.155459 -0.467 
59 52 42 
0.165173 0.155459 -0.467 
62 58 47 
0.168411 0.155459 -0.467 
66 67 63 
0.171281 0.155126 -0.466 
70 85 84 
0.174512 0.155126 -0.466 
80 124 131 
0.177362 0.154794 -0.465 
87 135 145 
0.180585 0.154794 -0.465 
81 132 144 
0.183809 0.154794 -0.465 
81 137 147 
0.187033 0.154794 -0.465 
77 128 140 
0.189848 0.154461 -0.464 
103 152 155 
0.193065 0.154461 -0.464 
72 127 135 
0.196282 0.154461 -0.464 
76 131 139 
0.199928 0.154794 -0.465 
79 128 141 
0.202715 0.154461 -0.464 
75 127 134 
0.205932 0.154461 -0.464 
77 129 138 
0.208699 0.154128 -0.463 
76 126 136 
0.211909 0.154128 -0.463 
95 135 148 
0.214654 0.153795 -0.462 
80 132 141 
0.217857 0.153795 -0.462 
82 134 143 
0.22106 0.153795 -0.462 
90 135 146 
0.224263 0.153795 -0.462 
93 143 151 
0.227466 0.153795 -0.462 
94 143 148 
0.230669 0.153795 -0.462 
78 132 143 
0.234378 0.154128 -0.463 
83 133 143 
0.237588 0.154128 -0.463 
90 139 152 
0.240798 0.154128 -0.463 
83 139 149 
0.244535 0.154461 -0.464 
90 140 150 
0.247752 0.154461 -0.464 
95 146 158 
0.250969 0.154461 -0.464 
87 138 152 
0.254186 0.154461 -0.464 
91 142 156 
0.256848 0.154128 -0.463 
99 148 161 
0.260058 0.154128 -0.463 
91 147 159 
0.263268 0.154128 -0.463 
81 142 155 
0.265903 0.153795 -0.462 
97 136 152 
0.269106 0.153795 -0.462 
98 145 158 
0.272309 0.153795 -0.462 
94 143 158 
0.275512 0.153795 -0.462 
95 146 158 
0.278715 0.153795 -0.462 
96 141 150 
0.281918 0.153795 -0.462 
101 140 147 
0.285121 0.153795 -0.462 
98 144 150 
0.288948 0.154128 -0.463 
94 142 150 
0.292158 0.154128 -0.463 
96 145 150 
0.295368 0.154128 -0.463 
101 145 159 
0.298578 0.154128 -0.463 
99 143 157 
0.301788 0.154128 -0.463 
99 143 157 
0.304339 0.153795 -0.462 
99 143 157 
0.306877 0.153462 -0.461 
99 143 157 
0.310073 0.153462 -0.461 
99 143 157 
0.313269 0.153462 -0.461 
99 143 157 
0.316465 0.153462 -0.461 
99 143 157 
0.319661 0.153462 -0.461 
99 143 157 
0.322858 0.153462 -0.461 
99 143 157 
0.326054 0.153462 -0.461 
99 143 157 
0.329964 0.153795 -0.462 
99 143 157 
0.334609 0.154461 -0.464 
99 143 157 
0.337826 0.154461 -0.464 
99 143 157 
0.341043 0.154461 -0.464 
99 143 157 
0.34426 0.154461 -0.464 
99 143 157 
0.345979 0.153795 -0.462 
99 143 157 
0.348426 0.153462 -0.461 
99 143 157 
0.351623 0.153462 -0.461 
99 143 157 
0.354819 0.153462 -0.461 
99 143 157 
0.358015 0.153462 -0.461 
99 143 157 
0.361995 0.153795 -0.462 
99 143 157 
0.364407 0.153462 -0.461 
99 143 157 
0.367603 0.153462 -0.461 
99 143 157 
0.369995 0.153129 -0.46 
99 143 157 
0.373184 0.153129 -0.46 
99 143 157 
0.376373 0.153129 -0.46 
99 143 157 
0.380388 0.153462 -0.461 
99 143 157 
0.383584 0.153462 -0.461 
99 143 157 
0.38678 0.153462 -0.461 
99 143 157 
0.389976 0.153462 -0.461 
99 143 157 
0.393172 0.153462 -0.461 
99 143 157 
0.396368 0.153462 -0.461 
99 143 157 
0.399564 0.153462 -0.461 
99 143 157 
0.402761 0.153462 -0.461 
99 143 157 
0.405957 0.153462 -0.461 
99 143 157 
0.408265 0.153129 -0.46 
99 143 157 
0.411454 0.153129 -0.46 
99 143 157 
0.414644 0.153129 -0.46 
99 143 157 
0.416925 0.152796 -0.459 
99 143 157 
0.420107 0.152796 -0.459 
99 143 157 
0.423289 0.152796 -0.459 
99 143 157 
0.4274 0.153129 -0.46 
99 143 157 
0.431526 0.153462 -0.461 
99 143 157 
0.434722 0.153462 -0.461 
99 143 157 
0.437918 0.153462 -0.461 
99 143 157 
0.441114 0.153462 -0.461 
99 143 157 
0.443346 0.153129 -0.46 
99 143 157 
0.446536 0.153129 -0.46 
99 143 157 
0.449725 0.153129 -0.46 
103 150 163 
-0.342823 0.153525 -0.471 
84 138 151 
-0.339557 0.153525 -0.471 
81 140 153 
-0.336292 0.153525 -0.471 
74 137 147 
-0.333026 0.153525 -0.471 
76 142 153 
-0.329761 0.153525 -0.471 
72 133 146 
-0.326495 0.153525 -0.471 
66 140 153 
-0.32323 0.153525 -0.471 
69 141 153 
-0.320644 0.153851 -0.472 
67 143 158 
-0.316699 0.153525 -0.471 
76 138 155 
-0.312768 0.153199 -0.47 
69 131 146 
-0.30951 0.153199 -0.47 
84 135 151 
-0.305599 0.152874 -0.469 
77 138 151 
-0.302348 0.152874 -0.469 
69 142 151 
-0.299734 0.153199 -0.47 
64 136 148 
-0.296475 0.153199 -0.47 
64 134 148 
-0.293217 0.153199 -0.47 
64 136 150 
-0.289958 0.153199 -0.47 
66 138 152 
-0.2867 0.153199 -0.47 
71 136 150 
-0.283441 0.153199 -0.47 
73 140 153 
-0.280183 0.153199 -0.47 
68 134 152 
-0.276924 0.153199 -0.47 
77 133 147 
-0.274248 0.153525 -0.471 
80 134 147 
-0.271558 0.153851 -0.472 
72 133 144 
-0.268286 0.153851 -0.472 
72 131 142 
-0.265013 0.153851 -0.472 
67 128 139 
-0.261741 0.153851 -0.472 
67 133 142 
-0.257921 0.153525 -0.471 
72 135 143 
-0.254655 0.153525 -0.471 
74 142 152 
-0.25139 0.153525 -0.471 
70 142 154 
-0.247598 0.153199 -0.47 
74 139 155 
-0.244339 0.153199 -0.47 
72 138 147 
-0.241081 0.153199 -0.47 
67 131 134 
-0.238328 0.153525 -0.471 
71 132 141 
-0.235063 0.153525 -0.471 
67 130 140 
-0.231797 0.153525 -0.471 
60 121 132 
-0.228532 0.153525 -0.471 
58 124 135 
-0.225266 0.153525 -0.471 
63 129 140 
-0.222001 0.153525 -0.471 
68 129 142 
-0.218735 0.153525 -0.471 
64 129 143 
-0.215012 0.153199 -0.47 
62 129 142 
-0.211754 0.153199 -0.47 
55 122 135 
-0.208495 0.153199 -0.47 
60 128 138 
-0.205237 0.153199 -0.47 
62 132 146 
-0.202408 0.153525 -0.471 
55 125 139 
-0.199143 0.153525 -0.471 
59 120 133 
-0.195877 0.153525 -0.471 
63 126 136 
-0.192203 0.153199 -0.47 
63 126 136 
-0.188944 0.153199 -0.47 
62 125 135 
-0.185686 0.153199 -0.47 
48 123 131 
-0.182427 0.153199 -0.47 
50 128 135 
-0.179169 0.153199 -0.47 
48 126 133 
-0.17591 0.153199 -0.47 
54 120 131 
-0.173019 0.153525 -0.471 
62 121 132 
-0.169393 0.153199 -0.47 
63 124 133 
-0.166488 0.153525 -0.471 
61 122 133 
-0.163223 0.153525 -0.471 
59 118 127 
-0.159957 0.153525 -0.471 
53 116 126 
-0.156692 0.153525 -0.471 
58 129 138 
-0.153426 0.153525 -0.471 
50 118 126 
-0.149842 0.153199 -0.47 
53 121 129 
-0.146583 0.153199 -0.47 
55 126 135 
-0.14302 0.152874 -0.469 
44 117 126 
-0.139768 0.152874 -0.469 
53 119 128 
-0.136226 0.152548 -0.468 
56 112 122 
-0.132981 0.152548 -0.468 
64 118 129 
-0.130014 0.152874 -0.469 
58 119 128 
-0.126762 0.152874 -0.469 
56 115 124 
-0.12351 0.152874 -0.469 
60 117 124 
-0.120259 0.152874 -0.469 
56 124 132 
-0.117007 0.152874 -0.469 
53 119 130 
-0.113998 0.153199 -0.47 
50 116 127 
-0.11074 0.153199 -0.47 
55 121 130 
-0.107253 0.152874 -0.469 
54 115 124 
-0.104001 0.152874 -0.469 
53 114 123 
-0.100749 0.152874 -0.469 
49 112 120 
-0.0974978 0.152874 -0.469 
55 118 126 
-0.0944471 0.153199 -0.47 
52 116 121 
-0.0911886 0.153199 -0.47 
53 116 124 
-0.0879301 0.153199 -0.47 
49 112 120 
-0.0844914 0.152874 -0.469 
46 110 115 
-0.0812398 0.152874 -0.469 
52 114 120 
-0.0779882 0.152874 -0.469 
54 114 120 
-0.0747367 0.152874 -0.469 
62 119 126 
-0.0716375 0.153199 -0.47 
54 120 127 
-0.068379 0.153199 -0.47 
46 112 119 
-0.0651205 0.153199 -0.47 
51 115 120 
-0.0618619 0.153199 -0.47 
56 122 129 
-0.0584787 0.152874 -0.469 
48 114 121 
-0.0552271 0.152874 -0.469 
54 113 122 
-0.0519755 0.152874 -0.469 
51 114 124 
-0.048724 0.152874 -0.469 
56 119 129 
-0.0453754 0.152548 -0.468 
59 122 134 
-0.0421308 0.152548 -0.468 
50 111 122 
-0.0388861 0.152548 -0.468 
58 117 128 
-0.0356414 0.152548 -0.468 
51 112 121 
-0.0323968 0.152548 -0.468 
57 113 123 
-0.0292144 0.152874 -0.469 
53 113 119 
-0.0259628 0.152874 -0.469 
54 115 124 
-0.0227113 0.152874 -0.469 
57 119 125 
-0.0195012 0.153199 -0.47 
49 110 119 
-0.0162081 0.152874 -0.469 
55 111 123 
-0.0129565 0.152874 -0.469 
56 115 124 
-0.0097049 0.152874 -0.469 
50 112 116 
-0.00645331 0.152874 -0.469 
57 119 123 
-0.0031949 0.152548 -0.468 
57 120 128 
4.96507e-05 0.152222 -0.467 
60 121 130 
0.00328737 0.152222 -0.467 
59 118 127 
0.00652509 0.152222 -0.467 
56 117 126 
0.00978372 0.152548 -0.468 
52 115 123 
0.0130284 0.152548 -0.468 
53 117 122 
0.016273 0.152548 -0.468 
56 116 122 
0.0195177 0.152548 -0.468 
57 120 128 
0.0227623 0.152548 -0.468 
53 116 126 
0.026007 0.152548 -0.468 
85 134 135 
0.0292516 0.152548 -0.468 
57 121 126 
0.0324963 0.152548 -0.468 
51 115 120 
0.035741 0.152548 -0.468 
51 115 120 
0.0389856 0.152548 -0.468 
55 118 126 
0.0422303 0.152548 -0.468 
53 114 125 
0.0454749 0.152548 -0.468 
59 113 126 
0.0486155 0.152222 -0.467 
56 112 124 
0.0518532 0.152222 -0.467 
55 114 127 
0.0550909 0.152222 -0.467 
57 117 133 
0.0583286 0.152222 -0.467 
53 116 128 
0.0615664 0.152222 -0.467 
61 122 135 
0.0648041 0.152222 -0.467 
60 119 130 
0.0681875 0.152548 -0.468 
59 120 131 
0.0714322 0.152548 -0.468 
47 124 134 
0.0748364 0.152874 -0.469 
45 117 129 
0.0779215 0.152548 -0.468 
51 132 147 
0.0809927 0.152222 -0.467 
48 126 144 
0.0842304 0.152222 -0.467 
44 128 144 
0.0874681 0.152222 -0.467 
53 122 139 
0.0905116 0.151896 -0.466 
35 116 133 
0.0937424 0.151896 -0.466 
30 111 128 
0.0969732 0.151896 -0.466 
52 114 129 
0.100204 0.151896 -0.466 
58 119 130 
0.103435 0.151896 -0.466 
58 115 122 
0.106894 0.152222 -0.467 
53 112 121 
0.109896 0.151896 -0.466 
55 110 116 
0.113127 0.151896 -0.466 
56 113 118 
0.116358 0.151896 -0.466 
61 119 121 
0.119332 0.15157 -0.465 
56 113 118 
0.122292 0.151244 -0.464 
63 115 122 
0.125509 0.151244 -0.464 
66 115 120 
0.128726 0.151244 -0.464 
62 108 114 
0.131943 0.151244 -0.464 
63 109 115 
0.135451 0.15157 -0.465 
62 111 112 
0.138675 0.15157 -0.465 
57 101 106 
0.141899 0.15157 -0.465 
89 120 120 
0.145435 0.151896 -0.466 
67 91 91 
0.148666 0.151896 -0.466 
50 74 74 
0.151897 0.151896 -0.466 
43 55 57 
0.155127 0.151896 -0.466 
51 62 62 
0.158358 0.151896 -0.466 
49 52 53 
0.161589 0.151896 -0.466 
51 52 41 
0.165173 0.152222 -0.467 
55 53 43 
0.168411 0.152222 -0.467 
68 61 55 
0.171281 0.151896 -0.466 
60 61 48 
0.174512 0.151896 -0.466 
64 63 48 
0.177743 0.151896 -0.466 
78 67 58 
0.180974 0.151896 -0.466 
54 70 61 
0.183809 0.15157 -0.465 
86 110 108 
0.187033 0.15157 -0.465 
87 126 135 
0.189848 0.151244 -0.464 
74 127 131 
0.193065 0.151244 -0.464 
86 131 140 
0.196282 0.151244 -0.464 
70 125 131 
0.199499 0.151244 -0.464 
78 131 135 
0.202715 0.151244 -0.464 
74 126 135 
0.205489 0.150918 -0.463 
82 134 143 
0.208699 0.150918 -0.463 
81 133 140 
0.211909 0.150918 -0.463 
89 138 143 
0.215119 0.150918 -0.463 
91 135 140 
0.217857 0.150592 -0.462 
87 132 143 
0.22106 0.150592 -0.462 
89 137 147 
0.224263 0.150592 -0.462 
85 132 145 
0.227466 0.150592 -0.462 
82 133 147 
0.230669 0.150592 -0.462 
80 139 148 
0.233872 0.150592 -0.462 
79 138 147 
0.237075 0.150592 -0.462 
82 133 145 
0.240278 0.150592 -0.462 
89 137 145 
0.244008 0.150918 -0.463 
85 136 141 
0.247218 0.150918 -0.463 
91 139 147 
0.250428 0.150918 -0.463 
91 142 154 
0.253638 0.150918 -0.463 
90 140 150 
0.256848 0.150918 -0.463 
94 141 154 
0.259497 0.150592 -0.462 
94 143 158 
0.2627 0.150592 -0.462 
87 137 147 
0.265327 0.150266 -0.461 
91 149 151 
0.269106 0.150592 -0.462 
106 150 155 
0.272309 0.150592 -0.462 
91 139 149 
0.275512 0.150592 -0.462 
79 140 149 
0.278715 0.150592 -0.462 
100 143 153 
0.281308 0.150266 -0.461 
108 147 156 
0.285121 0.150592 -0.462 
100 145 156 
0.288948 0.150918 -0.463 
109 149 160 
0.292158 0.150918 -0.463 
89 141 148 
0.295368 0.150918 -0.463 
97 142 151 
0.297933 0.150592 -0.462 
96 141 150 
0.301136 0.150592 -0.462 
96 141 150 
0.304339 0.150592 -0.462 
96 141 150 
0.307543 0.150592 -0.462 
96 141 150 
0.310073 0.150266 -0.461 
96 141 150 
0.313269 0.150266 -0.461 
96 141 150 
0.316465 0.150266 -0.461 
96 141 150 
0.319661 0.150266 -0.461 
96 141 150 
0.322858 0.150266 -0.461 
96 141 150 
0.326054 0.150266 -0.461 
96 141 150 
0.329964 0.150592 -0.462 
96 141 150 
0.333888 0.150918 -0.463 
96 141 150 
0.337826 0.151244 -0.464 
96 141 150 
0.341043 0.151244 -0.464 
96 141 150 
0.343518 0.150918 -0.463 
96 141 150 
0.345979 0.150592 -0.462 
96 141 150 
0.348426 0.150266 -0.461 
96 141 150 
0.351623 0.150266 -0.461 
96 141 150 
0.354819 0.150266 -0.461 
96 141 150 
0.358015 0.150266 -0.461 
96 141 150 
0.361995 0.150592 -0.462 
96 141 150 
0.364407 0.150266 -0.461 
96 141 150 
0.367603 0.150266 -0.461 
96 141 150 
0.369995 0.14994 -0.46 
96 141 150 
0.373184 0.14994 -0.46 
96 141 150 
0.376373 0.14994 -0.46 
96 141 150 
0.379563 0.14994 -0.46 
96 141 150 
0.383584 0.150266 -0.461 
96 141 150 
0.38678 0.150266 -0.461 
96 141 150 
0.389976 0.150266 -0.461 
96 141 150 
0.393172 0.150266 -0.461 
96 141 150 
0.396368 0.150266 -0.461 
96 141 150 
0.399564 0.150266 -0.461 
96 141 150 
0.402761 0.150266 -0.461 
96 141 150 
0.405957 0.150266 -0.461 
98 142 149 
0.408265 0.14994 -0.46 
98 142 149 
0.41056 0.149614 -0.459 
98 142 149 
0.413742 0.149614 -0.459 
98 142 149 
0.416925 0.149614 -0.459 
98 142 149 
0.420107 0.149614 -0.459 
98 142 149 
0.423289 0.149614 -0.459 
98 142 149 
0.4274 0.14994 -0.46 
98 142 149 
0.431526 0.150266 -0.461 
98 142 149 
0.434722 0.150266 -0.461 
98 142 149 
0.436968 0.14994 -0.46 
98 142 149 
0.4392 0.149614 -0.459 
98 142 149 
0.441419 0.149288 -0.458 
98 142 149 
0.444594 0.149288 -0.458 
98 142 149 
0.447769 0.149288 -0.458 
98 142 149 
-0.342095 0.149941 -0.47 
94 143 158 
-0.339557 0.15026 -0.471 
84 138 153 
-0.336292 0.15026 -0.471 
72 135 147 
-0.333026 0.15026 -0.471 
67 131 150 
-0.329061 0.149941 -0.47 
64 137 157 
-0.325802 0.149941 -0.47 
59 135 152 
-0.322544 0.149941 -0.47 
54 135 148 
-0.319964 0.15026 -0.471 
52 129 141 
-0.316699 0.15026 -0.471 
68 134 145 
-0.313433 0.15026 -0.471 
64 131 146 
-0.30951 0.149941 -0.47 
67 134 147 
-0.306251 0.149941 -0.47 
69 133 152 
-0.302992 0.149941 -0.47 
66 133 148 
-0.299734 0.149941 -0.47 
63 136 156 
-0.296475 0.149941 -0.47 
65 138 147 
-0.293841 0.15026 -0.471 
68 138 152 
-0.290575 0.15026 -0.471 
62 134 148 
-0.2867 0.149941 -0.47 
66 133 148 
-0.283441 0.149941 -0.47 
69 139 153 
-0.279587 0.149622 -0.469 
70 135 149 
-0.276335 0.149622 -0.469 
64 138 149 
-0.273666 0.149941 -0.47 
72 134 149 
-0.270983 0.15026 -0.471 
64 131 146 
-0.267717 0.15026 -0.471 
62 129 144 
-0.264452 0.15026 -0.471 
63 137 150 
-0.261186 0.15026 -0.471 
66 139 148 
-0.257921 0.15026 -0.471 
79 133 144 
-0.254655 0.15026 -0.471 
84 143 152 
-0.25139 0.15026 -0.471 
82 142 148 
-0.247598 0.149941 -0.47 
72 134 140 
-0.244339 0.149941 -0.47 
67 130 140 
-0.241594 0.15026 -0.471 
67 128 139 
-0.238328 0.15026 -0.471 
62 125 137 
-0.235063 0.15026 -0.471 
62 127 141 
-0.231797 0.15026 -0.471 
63 129 138 
-0.228532 0.15026 -0.471 
58 129 136 
-0.225266 0.15026 -0.471 
66 134 142 
-0.222472 0.150579 -0.472 
63 126 136 
-0.218735 0.15026 -0.471 
65 136 145 
-0.215012 0.149941 -0.47 
62 128 139 
-0.211754 0.149941 -0.47 
56 124 134 
-0.208495 0.149941 -0.47 
55 127 139 
-0.205237 0.149941 -0.47 
62 129 142 
-0.201978 0.149941 -0.47 
55 127 139 
-0.19872 0.149941 -0.47 
61 120 131 
-0.195461 0.149941 -0.47 
66 125 134 
-0.192203 0.149941 -0.47 
61 127 136 
-0.188944 0.149941 -0.47 
59 122 130 
-0.185686 0.149941 -0.47 
63 126 136 
-0.182427 0.149941 -0.47 
55 121 132 
-0.179169 0.149941 -0.47 
58 119 130 
-0.17591 0.149941 -0.47 
59 120 131 
-0.172652 0.149941 -0.47 
60 119 128 
-0.169393 0.149941 -0.47 
65 119 130 
-0.166135 0.149941 -0.47 
62 119 126 
-0.162876 0.149941 -0.47 
69 124 132 
-0.159618 0.149941 -0.47 
59 119 125 
-0.156359 0.149941 -0.47 
59 119 125 
-0.153101 0.149941 -0.47 
58 115 122 
-0.149842 0.149941 -0.47 
56 116 122 
-0.146583 0.149941 -0.47 
54 115 124 
-0.143325 0.149941 -0.47 
53 116 124 
-0.140066 0.149941 -0.47 
55 121 128 
-0.136517 0.149622 -0.469 
56 118 124 
-0.133265 0.149622 -0.469 
60 121 130 
-0.130014 0.149622 -0.469 
56 119 127 
-0.126762 0.149622 -0.469 
50 116 123 
-0.12351 0.149622 -0.469 
57 120 128 
-0.120259 0.149622 -0.469 
58 124 133 
-0.117257 0.149941 -0.47 
49 115 122 
-0.113998 0.149941 -0.47 
55 118 126 
-0.11074 0.149941 -0.47 
51 117 124 
-0.107253 0.149622 -0.469 
53 114 123 
-0.104001 0.149622 -0.469 
52 115 123 
-0.100749 0.149622 -0.469 
50 111 120 
-0.0974978 0.149622 -0.469 
57 118 127 
-0.0942462 0.149622 -0.469 
53 119 128 
-0.0911886 0.149941 -0.47 
48 114 123 
-0.087743 0.149622 -0.469 
56 118 124 
-0.0844914 0.149622 -0.469 
58 111 113 
-0.0812398 0.149622 -0.469 
58 111 115 
-0.0781545 0.149941 -0.47 
53 113 117 
-0.074896 0.149941 -0.47 
50 117 121 
-0.0716375 0.149941 -0.47 
52 113 122 
-0.068379 0.149941 -0.47 
52 114 120 
-0.0651205 0.149941 -0.47 
52 114 120 
-0.0618619 0.149941 -0.47 
54 115 124 
-0.0584787 0.149622 -0.469 
50 111 120 
-0.0552271 0.149622 -0.469 
52 114 120 
-0.0519755 0.149622 -0.469 
53 119 126 
-0.0486201 0.149303 -0.468 
52 115 123 
-0.0453754 0.149303 -0.468 
53 124 129 
-0.0421308 0.149303 -0.468 
58 114 126 
-0.0388861 0.149303 -0.468 
55 115 121 
-0.0356414 0.149303 -0.468 
55 112 119 
-0.0323968 0.149303 -0.468 
54 114 120 
-0.0290898 0.148984 -0.467 
54 115 124 
-0.0259075 0.149303 -0.468 
57 113 123 
-0.0226628 0.149303 -0.468 
54 111 118 
-0.0194597 0.149622 -0.469 
56 113 120 
-0.0162081 0.149622 -0.469 
47 109 115 
-0.0129565 0.149622 -0.469 
56 112 124 
-0.0097049 0.149622 -0.469 
53 109 119 
-0.00645331 0.149622 -0.469 
54 115 124 
-0.0031949 0.149303 -0.468 
53 126 135 
4.96507e-05 0.148984 -0.467 
52 119 132 
0.00328737 0.148984 -0.467 
54 122 132 
0.00652509 0.148984 -0.467 
57 118 127 
0.00976282 0.148984 -0.467 
56 113 118 
0.0130284 0.149303 -0.468 
92 143 146 
0.016273 0.149303 -0.468 
58 121 129 
0.0195177 0.149303 -0.468 
57 123 132 
0.0227623 0.149303 -0.468 
56 122 129 
0.026007 0.149303 -0.468 
62 125 135 
0.0292516 0.149303 -0.468 
57 118 129 
0.0324963 0.149303 -0.468 
56 117 128 
0.035741 0.149303 -0.468 
53 114 123 
0.0389856 0.149303 -0.468 
57 114 121 
0.0422303 0.149303 -0.468 
56 116 122 
0.0454749 0.149303 -0.468 
58 119 128 
0.0486155 0.148984 -0.467 
58 110 119 
0.0518532 0.148984 -0.467 
61 116 124 
0.054973 0.148665 -0.466 
56 116 122 
0.0582037 0.148665 -0.466 
58 115 122 
0.0614345 0.148665 -0.466 
64 121 128 
0.0646653 0.148665 -0.466 
50 112 118 
0.0680418 0.148984 -0.467 
51 112 121 
0.0714322 0.149303 -0.468 
53 115 121 
0.0746768 0.149303 -0.468 
52 114 120 
0.077755 0.148984 -0.467 
63 115 124 
0.0808193 0.148665 -0.466 
61 113 122 
0.0840501 0.148665 -0.466 
61 116 124 
0.0872808 0.148665 -0.466 
63 120 127 
0.0905116 0.148665 -0.466 
60 122 128 
0.0937424 0.148665 -0.466 
54 116 122 
0.0969732 0.148665 -0.466 
57 120 128 
0.100204 0.148665 -0.466 
57 118 127 
0.103657 0.148984 -0.467 
58 115 122 
0.106894 0.148984 -0.467 
62 118 128 
0.109896 0.148665 -0.466 
61 120 129 
0.113127 0.148665 -0.466 
61 118 125 
0.116358 0.148665 -0.466 
60 116 126 
0.119332 0.148346 -0.465 
63 117 128 
0.122292 0.148027 -0.464 
65 117 124 
0.125509 0.148027 -0.464 
63 117 130 
0.128726 0.148027 -0.464 
63 118 126 
0.131943 0.148027 -0.464 
65 120 128 
0.13516 0.148027 -0.464 
65 117 124 
0.138377 0.148027 -0.464 
63 116 120 
0.141594 0.148027 -0.464 
67 120 124 
0.144811 0.148027 -0.464 
74 118 125 
0.148028 0.148027 -0.464 
76 122 128 
0.151571 0.148346 -0.465 
71 117 123 
0.154795 0.148346 -0.465 
67 116 121 
0.158018 0.148346 -0.465 
68 119 122 
0.161242 0.148346 -0.465 
70 119 122 
0.16482 0.148665 -0.466 
68 120 127 
0.168051 0.148665 -0.466 
88 123 126 
0.171281 0.148665 -0.466 
71 119 127 
0.174138 0.148346 -0.465 
73 119 125 
0.177362 0.148346 -0.465 
78 115 118 
0.180585 0.148346 -0.465 
82 121 128 
0.183809 0.148346 -0.465 
74 110 118 
0.186631 0.148027 -0.464 
74 107 111 
0.189439 0.147708 -0.463 
71 99 105 
0.192649 0.147708 -0.463 
91 125 133 
0.195436 0.147389 -0.462 
79 135 147 
0.199069 0.147708 -0.463 
92 155 167 
0.202279 0.147708 -0.463 
79 139 157 
0.205489 0.147708 -0.463 
77 139 154 
0.208248 0.147389 -0.462 
94 143 158 
0.211451 0.147389 -0.462 
87 132 141 
0.214654 0.147389 -0.462 
88 136 144 
0.217857 0.147389 -0.462 
90 138 146 
0.22106 0.147389 -0.462 
88 136 146 
0.224263 0.147389 -0.462 
85 139 150 
0.227466 0.147389 -0.462 
82 141 152 
0.230669 0.147389 -0.462 
85 134 149 
0.233872 0.147389 -0.462 
87 136 149 
0.237075 0.147389 -0.462 
88 136 144 
0.240278 0.147389 -0.462 
83 133 143 
0.244008 0.147708 -0.463 
88 140 147 
0.247218 0.147708 -0.463 
89 141 150 
0.250428 0.147708 -0.463 
93 143 153 
0.253091 0.147389 -0.462 
90 138 148 
0.256294 0.147389 -0.462 
101 142 150 
0.259497 0.147389 -0.462 
94 143 156 
0.262131 0.14707 -0.461 
98 145 160 
0.265327 0.14707 -0.461 
94 145 157 
0.268523 0.14707 -0.461 
90 139 154 
0.27172 0.14707 -0.461 
104 144 155 
0.274916 0.14707 -0.461 
89 145 148 
0.278112 0.14707 -0.461 
91 146 154 
0.281308 0.14707 -0.461 
90 145 153 
0.285121 0.147389 -0.462 
98 143 154 
0.288324 0.147389 -0.462 
89 148 161 
0.291527 0.147389 -0.462 
98 152 163 
0.29473 0.147389 -0.462 
94 144 152 
0.297933 0.147389 -0.462 
99 149 157 
0.301136 0.147389 -0.462 
99 149 157 
0.304339 0.147389 -0.462 
99 149 157 
0.307543 0.147389 -0.462 
99 149 157 
0.310746 0.147389 -0.462 
99 149 157 
0.313269 0.14707 -0.461 
99 149 157 
0.316465 0.14707 -0.461 
99 149 157 
0.319661 0.14707 -0.461 
99 149 157 
0.322157 0.146751 -0.46 
99 149 157 
0.326054 0.14707 -0.461 
99 149 157 
0.32925 0.14707 -0.461 
99 149 157 
0.333888 0.147708 -0.463 
99 149 157 
0.337098 0.147708 -0.463 
99 149 157 
0.340308 0.147708 -0.463 
99 149 157 
0.343518 0.147708 -0.463 
99 149 157 
0.345979 0.147389 -0.462 
99 149 157 
0.348426 0.14707 -0.461 
99 149 157 
0.351623 0.14707 -0.461 
99 149 157 
0.354819 0.14707 -0.461 
99 149 157 
0.358015 0.14707 -0.461 
95 148 152 
0.361995 0.147389 -0.462 
95 148 152 
0.365198 0.147389 -0.462 
95 148 152 
0.368401 0.147389 -0.462 
95 148 152 
0.369995 0.146751 -0.46 
95 148 152 
0.373184 0.146751 -0.46 
95 148 152 
0.376373 0.146751 -0.46 
95 148 152 
0.379563 0.146751 -0.46 
95 148 152 
0.383584 0.14707 -0.461 
95 148 152 
0.38678 0.14707 -0.461 
95 148 152 
0.389976 0.14707 -0.461 
95 148 152 
0.393172 0.14707 -0.461 
95 148 152 
0.396368 0.14707 -0.461 
95 148 152 
0.399564 0.14707 -0.461 
95 148 152 
0.402761 0.14707 -0.461 
95 148 152 
0.405076 0.146751 -0.46 
95 148 152 
0.408265 0.146751 -0.46 
95 148 152 
0.41056 0.146432 -0.459 
95 148 152 
0.413742 0.146432 -0.459 
95 148 152 
0.416925 0.146432 -0.459 
95 148 152 
0.421022 0.146751 -0.46 
95 148 152 
0.424211 0.146751 -0.46 
95 148 152 
0.42833 0.14707 -0.461 
95 148 152 
0.431526 0.14707 -0.461 
95 148 152 
0.434722 0.14707 -0.461 
95 148 152 
0.436968 0.146751 -0.46 
95 148 152 
0.438244 0.146113 -0.458 
95 148 152 
0.440455 0.145794 -0.457 
95 148 152 
0.443623 0.145794 -0.457 
95 148 152 
0.446792 0.145794 -0.457 
95 148 152 
-0.342823 0.146995 -0.471 
78 140 155 
-0.339557 0.146995 -0.471 
76 138 153 
-0.336292 0.146995 -0.471 
80 143 155 
-0.332319 0.146682 -0.47 
74 134 150 
-0.329061 0.146682 -0.47 
77 132 149 
-0.325802 0.146682 -0.47 
69 134 150 
-0.322544 0.146682 -0.47 
66 136 150 
-0.319285 0.146682 -0.47 
62 134 146 
-0.316699 0.146995 -0.471 
63 137 148 
-0.313433 0.146995 -0.471 
62 133 150 
-0.310168 0.146995 -0.471 
75 134 145 
-0.306903 0.146995 -0.471 
74 140 151 
-0.303637 0.146995 -0.471 
70 136 147 
-0.300372 0.146995 -0.471 
60 133 140 
-0.297106 0.146995 -0.471 
80 134 149 
-0.293841 0.146995 -0.471 
64 134 148 
-0.290575 0.146995 -0.471 
73 140 155 
-0.28731 0.146995 -0.471 
68 133 147 
-0.283441 0.146682 -0.47 
59 130 147 
-0.279587 0.14637 -0.469 
61 134 150 
-0.276335 0.14637 -0.469 
66 137 146 
-0.273666 0.146682 -0.47 
68 136 144 
-0.270407 0.146682 -0.47 
61 131 143 
-0.267717 0.146995 -0.471 
77 136 149 
-0.264452 0.146995 -0.471 
76 135 148 
-0.261186 0.146995 -0.471 
72 133 144 
-0.257921 0.146995 -0.471 
74 134 140 
-0.254115 0.146682 -0.47 
85 140 148 
-0.250856 0.146682 -0.47 
91 136 145 
-0.247598 0.146682 -0.47 
86 131 140 
-0.244859 0.146995 -0.471 
70 136 143 
-0.241594 0.146995 -0.471 
62 125 135 
-0.238834 0.147307 -0.472 
54 125 134 
-0.235063 0.146995 -0.471 
64 134 148 
-0.231797 0.146995 -0.471 
64 131 146 
-0.228532 0.146995 -0.471 
65 127 142 
-0.225266 0.146995 -0.471 
67 126 139 
-0.222001 0.146995 -0.471 
65 126 139 
-0.218735 0.146995 -0.471 
58 129 138 
-0.215012 0.146682 -0.47 
60 127 140 
-0.211303 0.14637 -0.469 
63 124 137 
-0.208052 0.14637 -0.469 
64 132 140 
-0.2048 0.14637 -0.469 
66 134 142 
-0.201978 0.146682 -0.47 
55 126 135 
-0.19872 0.146682 -0.47 
59 129 141 
-0.195045 0.14637 -0.469 
62 121 130 
-0.191794 0.14637 -0.469 
57 128 137 
-0.188542 0.14637 -0.469 
59 122 134 
-0.185291 0.14637 -0.469 
66 127 140 
-0.182039 0.14637 -0.469 
64 120 130 
-0.178787 0.14637 -0.469 
69 128 137 
-0.175536 0.14637 -0.469 
59 118 127 
-0.172284 0.14637 -0.469 
59 122 132 
-0.169033 0.14637 -0.469 
55 123 131 
-0.165781 0.14637 -0.469 
57 119 125 
-0.16253 0.14637 -0.469 
66 126 132 
-0.159278 0.14637 -0.469 
62 117 125 
-0.156026 0.14637 -0.469 
67 124 131 
-0.152775 0.14637 -0.469 
61 118 125 
-0.149523 0.14637 -0.469 
56 116 122 
-0.146272 0.14637 -0.469 
55 126 133 
-0.143325 0.146682 -0.47 
50 118 126 
-0.140066 0.146682 -0.47 
60 116 126 
-0.136808 0.146682 -0.47 
57 118 129 
-0.133265 0.14637 -0.469 
56 117 126 
-0.130014 0.14637 -0.469 
58 121 129 
-0.126762 0.14637 -0.469 
53 119 126 
-0.12351 0.14637 -0.469 
60 123 131 
-0.120259 0.14637 -0.469 
54 120 129 
-0.117007 0.14637 -0.469 
49 117 123 
-0.113998 0.146682 -0.47 
49 112 120 
-0.110504 0.14637 -0.469 
66 114 122 
-0.107253 0.14637 -0.469 
55 110 118 
-0.104001 0.14637 -0.469 
55 114 123 
-0.100749 0.14637 -0.469 
55 114 123 
-0.0974978 0.14637 -0.469 
59 120 129 
-0.0942462 0.14637 -0.469 
60 123 131 
-0.0909946 0.14637 -0.469 
56 122 129 
-0.087743 0.14637 -0.469 
55 123 129 
-0.0844914 0.14637 -0.469 
47 113 120 
-0.0812398 0.14637 -0.469 
46 107 116 
-0.0779882 0.14637 -0.469 
49 117 125 
-0.074896 0.146682 -0.47 
50 116 125 
-0.0716375 0.146682 -0.47 
43 111 119 
-0.068379 0.146682 -0.47 
58 114 124 
-0.0651205 0.146682 -0.47 
55 112 117 
-0.0618619 0.146682 -0.47 
51 111 117 
-0.0584787 0.14637 -0.469 
52 114 120 
-0.0552271 0.14637 -0.469 
53 113 119 
-0.0519755 0.14637 -0.469 
54 115 124 
-0.0486201 0.146058 -0.468 
46 117 124 
-0.0453754 0.146058 -0.468 
44 115 122 
-0.0421308 0.146058 -0.468 
60 116 126 
-0.0388861 0.146058 -0.468 
53 113 119 
-0.0356414 0.146058 -0.468 
61 118 123 
-0.0323968 0.146058 -0.468 
53 113 119 
-0.0290898 0.145746 -0.467 
48 108 114 
-0.0258521 0.145746 -0.467 
54 120 127 
-0.0226628 0.146058 -0.468 
53 116 126 
-0.0194182 0.146058 -0.468 
51 114 122 
-0.0161735 0.146058 -0.468 
54 116 122 
-0.0129289 0.146058 -0.468 
54 114 120 
-0.00968421 0.146058 -0.468 
52 112 118 
-0.00643955 0.146058 -0.468 
57 114 121 
-0.0031949 0.146058 -0.468 
61 120 129 
4.96507e-05 0.145746 -0.467 
52 115 125 
0.00328737 0.145746 -0.467 
55 118 126 
0.00652509 0.145746 -0.467 
61 118 125 
0.00976282 0.145746 -0.467 
63 123 129 
0.0130005 0.145746 -0.467 
54 116 122 
0.0162383 0.145746 -0.467 
54 122 130 
0.019476 0.145746 -0.467 
54 122 132 
0.0227623 0.146058 -0.468 
52 120 130 
0.026007 0.146058 -0.468 
52 115 123 
0.0292516 0.146058 -0.468 
59 118 127 
0.0324963 0.146058 -0.468 
56 115 124 
0.035741 0.146058 -0.468 
61 121 127 
0.0389856 0.146058 -0.468 
58 118 124 
0.0422303 0.146058 -0.468 
65 125 131 
0.0453778 0.145746 -0.467 
57 121 126 
0.0485114 0.145434 -0.466 
54 109 115 
0.0517422 0.145434 -0.466 
59 112 116 
0.054973 0.145434 -0.466 
63 115 122 
0.0582037 0.145434 -0.466 
61 118 125 
0.0614345 0.145434 -0.466 
60 117 124 
0.0646653 0.145434 -0.466 
53 113 119 
0.0678961 0.145434 -0.466 
54 116 120 
0.0711269 0.145434 -0.466 
56 123 125 
0.0745173 0.145746 -0.467 
57 124 128 
0.0775885 0.145434 -0.466 
58 118 122 
0.0808193 0.145434 -0.466 
54 116 122 
0.0838697 0.145122 -0.465 
48 114 123 
0.0870935 0.145122 -0.465 
56 119 127 
0.0903174 0.145122 -0.465 
60 123 131 
0.0935413 0.145122 -0.465 
57 123 130 
0.0967651 0.145122 -0.465 
58 121 131 
0.100204 0.145434 -0.466 
61 112 124 
0.103435 0.145434 -0.466 
60 112 121 
0.106666 0.145434 -0.466 
61 121 127 
0.109896 0.145434 -0.466 
57 114 121 
0.113127 0.145434 -0.466 
63 119 122 
0.116358 0.145434 -0.466 
61 118 125 
0.119332 0.145122 -0.465 
63 120 127 
0.122556 0.145122 -0.465 
67 124 129 
0.125509 0.14481 -0.464 
68 118 126 
0.128726 0.14481 -0.464 
71 121 131 
0.131943 0.14481 -0.464 
69 117 127 
0.13516 0.14481 -0.464 
69 119 127 
0.138377 0.14481 -0.464 
73 121 131 
0.141594 0.14481 -0.464 
71 119 127 
0.144811 0.14481 -0.464 
70 122 131 
0.148028 0.14481 -0.464 
74 124 132 
0.151245 0.14481 -0.464 
75 130 136 
0.154462 0.14481 -0.464 
73 125 132 
0.158018 0.145122 -0.465 
77 129 136 
0.161242 0.145122 -0.465 
67 123 133 
0.164466 0.145122 -0.465 
69 131 146 
0.167329 0.14481 -0.464 
78 129 145 
0.170546 0.14481 -0.464 
74 124 134 
0.173763 0.14481 -0.464 
74 134 138 
0.17698 0.14481 -0.464 
75 130 136 
0.180197 0.14481 -0.464 
83 132 137 
0.183414 0.14481 -0.464 
83 131 139 
0.186229 0.144498 -0.463 
80 128 138 
0.189439 0.144498 -0.463 
76 126 136 
0.192233 0.144186 -0.462 
78 133 139 
0.195436 0.144186 -0.462 
72 122 132 
0.198639 0.144186 -0.462 
84 140 152 
0.201842 0.144186 -0.462 
84 138 151 
0.205045 0.144186 -0.462 
86 144 162 
0.207797 0.143874 -0.461 
85 148 160 
0.210993 0.143874 -0.461 
83 148 164 
0.214654 0.144186 -0.462 
83 152 169 
0.217857 0.144186 -0.462 
85 156 173 
0.22106 0.144186 -0.462 
80 160 180 
0.224263 0.144186 -0.462 
82 158 177 
0.227466 0.144186 -0.462 
84 161 182 
0.230669 0.144186 -0.462 
78 154 173 
0.233872 0.144186 -0.462 
74 155 172 
0.237075 0.144186 -0.462 
86 155 176 
0.240278 0.144186 -0.462 
77 154 175 
0.243481 0.144186 -0.462 
91 150 171 
0.246684 0.144186 -0.462 
91 149 165 
0.249888 0.144186 -0.462 
85 150 166 
0.252543 0.143874 -0.461 
85 144 165 
0.255739 0.143874 -0.461 
96 140 158 
0.258935 0.143874 -0.461 
94 143 160 
0.262131 0.143874 -0.461 
96 147 163 
0.265327 0.143874 -0.461 
93 147 162 
0.268523 0.143874 -0.461 
90 147 154 
0.27172 0.143874 -0.461 
91 146 154 
0.274916 0.143874 -0.461 
93 149 159 
0.278112 0.143874 -0.461 
103 152 167 
0.281308 0.143874 -0.461 
96 147 161 
0.284504 0.143874 -0.461 
100 150 160 
0.288324 0.144186 -0.462 
99 150 164 
0.291527 0.144186 -0.462 
87 141 154 
0.29473 0.144186 -0.462 
94 154 160 
0.297933 0.144186 -0.462 
93 153 159 
0.301136 0.144186 -0.462 
93 153 159 
0.304339 0.144186 -0.462 
93 153 159 
0.307543 0.144186 -0.462 
93 153 159 
0.310746 0.144186 -0.462 
97 151 162 
0.313949 0.144186 -0.462 
97 151 162 
0.316465 0.143874 -0.461 
97 151 162 
0.319661 0.143874 -0.461 
97 151 162 
0.322858 0.143874 -0.461 
97 151 162 
0.326054 0.143874 -0.461 
97 151 162 
0.329964 0.144186 -0.462 
97 151 162 
0.333167 0.144186 -0.462 
97 151 162 
0.33637 0.144186 -0.462 
97 151 162 
0.339573 0.144186 -0.462 
97 151 162 
0.342776 0.144186 -0.462 
97 151 162 
0.34523 0.143874 -0.461 
97 151 162 
0.348426 0.143874 -0.461 
97 151 162 
0.351623 0.143874 -0.461 
97 151 162 
0.354819 0.143874 -0.461 
97 151 162 
0.358015 0.143874 -0.461 
97 151 162 
0.361211 0.143874 -0.461 
97 151 162 
0.365198 0.144186 -0.462 
97 151 162 
0.367603 0.143874 -0.461 
97 151 162 
0.370799 0.143874 -0.461 
97 151 162 
0.373184 0.143562 -0.46 
97 151 162 
0.376373 0.143562 -0.46 
97 151 162 
0.380388 0.143874 -0.461 
97 151 162 
0.383584 0.143874 -0.461 
97 151 162 
0.38678 0.143874 -0.461 
97 151 162 
0.389976 0.143874 -0.461 
97 151 162 
0.392319 0.143562 -0.46 
97 151 162 
0.395509 0.143562 -0.46 
97 151 162 
0.398698 0.143562 -0.46 
97 151 162 
0.402761 0.143874 -0.461 
97 151 162 
0.405957 0.143874 -0.461 
97 151 162 
0.408265 0.143562 -0.46 
97 151 162 
0.411454 0.143562 -0.46 
97 151 162 
0.414644 0.143562 -0.46 
97 151 162 
0.417833 0.143562 -0.46 
97 151 162 
0.421022 0.143562 -0.46 
97 151 162 
0.425133 0.143874 -0.461 
97 151 162 
0.42833 0.143874 -0.461 
97 151 162 
0.431526 0.143874 -0.461 
97 151 162 
0.433779 0.143562 -0.46 
97 151 162 
0.436018 0.143249 -0.459 
97 151 162 
0.438244 0.142937 -0.458 
97 151 162 
0.441419 0.142937 -0.458 
97 151 162 
0.443623 0.142625 -0.457 
97 151 162 
0.446792 0.142625 -0.457 
97 151 162 
-0.342823 0.143729 -0.471 
87 141 152 
-0.339557 0.143729 -0.471 
88 144 156 
-0.336292 0.143729 -0.471 
79 137 153 
-0.332319 0.143424 -0.47 
78 140 155 
-0.329061 0.143424 -0.47 
80 142 157 
-0.325802 0.143424 -0.47 
81 149 159 
-0.32323 0.143729 -0.471 
66 139 148 
-0.319964 0.143729 -0.471 
64 136 150 
-0.316699 0.143729 -0.471 
65 138 154 
-0.313433 0.143729 -0.471 
63 136 152 
-0.310168 0.143729 -0.471 
69 134 148 
-0.306903 0.143729 -0.471 
79 138 149 
-0.303637 0.143729 -0.471 
69 133 152 
-0.300372 0.143729 -0.471 
69 134 150 
-0.297106 0.143729 -0.471 
63 139 154 
-0.293841 0.143729 -0.471 
70 136 147 
-0.290575 0.143729 -0.471 
70 136 147 
-0.28731 0.143729 -0.471 
69 131 146 
-0.284044 0.143729 -0.471 
62 136 149 
-0.280183 0.143424 -0.47 
61 135 148 
-0.276924 0.143424 -0.47 
63 135 147 
-0.273084 0.143119 -0.469 
65 131 138 
-0.269832 0.143119 -0.469 
60 132 144 
-0.267149 0.143424 -0.47 
61 137 152 
-0.264452 0.143729 -0.471 
59 131 145 
-0.261186 0.143729 -0.471 
62 134 148 
-0.257921 0.143729 -0.471 
67 128 139 
-0.254115 0.143424 -0.47 
70 129 138 
-0.250856 0.143424 -0.47 
79 136 141 
-0.247598 0.143424 -0.47 
73 125 132 
-0.244859 0.143729 -0.471 
68 136 146 
-0.242106 0.144034 -0.472 
62 133 138 
-0.23934 0.144339 -0.473 
70 129 138 
-0.235562 0.144034 -0.472 
69 132 144 
-0.232289 0.144034 -0.472 
63 128 142 
-0.228532 0.143729 -0.471 
67 130 142 
-0.225266 0.143729 -0.471 
59 122 132 
-0.222001 0.143729 -0.471 
59 122 130 
-0.218271 0.143424 -0.47 
56 130 143 
-0.214555 0.143119 -0.469 
58 130 142 
-0.211303 0.143119 -0.469 
59 121 136 
-0.208052 0.143119 -0.469 
64 125 138 
-0.2048 0.143119 -0.469 
60 121 134 
-0.201978 0.143424 -0.47 
65 124 137 
-0.19872 0.143424 -0.47 
58 129 138 
-0.195045 0.143119 -0.469 
55 121 130 
-0.191794 0.143119 -0.469 
64 127 139 
-0.188542 0.143119 -0.469 
57 123 132 
-0.185291 0.143119 -0.469 
59 122 130 
-0.182039 0.143119 -0.469 
61 120 129 
-0.178787 0.143119 -0.469 
62 118 128 
-0.175536 0.143119 -0.469 
64 120 132 
-0.172284 0.143119 -0.469 
65 124 137 
-0.169033 0.143119 -0.469 
63 122 133 
-0.165781 0.143119 -0.469 
59 120 131 
-0.162183 0.142814 -0.468 
57 118 129 
-0.159278 0.143119 -0.469 
65 124 133 
-0.156026 0.143119 -0.469 
60 119 128 
-0.152775 0.143119 -0.469 
64 126 132 
-0.149523 0.143119 -0.469 
56 117 128 
-0.146272 0.143119 -0.469 
61 120 129 
-0.14302 0.143119 -0.469 
59 113 124 
-0.139768 0.143119 -0.469 
59 114 122 
-0.136517 0.143119 -0.469 
63 120 127 
-0.133265 0.143119 -0.469 
52 115 123 
-0.130014 0.143119 -0.469 
51 122 131 
-0.126762 0.143119 -0.469 
44 118 129 
-0.12351 0.143119 -0.469 
61 129 139 
-0.120259 0.143119 -0.469 
59 127 137 
-0.117007 0.143119 -0.469 
56 119 127 
-0.113756 0.143119 -0.469 
56 119 127 
-0.110504 0.143119 -0.469 
57 112 120 
-0.107253 0.143119 -0.469 
62 117 123 
-0.104001 0.143119 -0.469 
59 119 125 
-0.100749 0.143119 -0.469 
54 116 122 
-0.0974978 0.143119 -0.469 
56 119 127 
-0.0942462 0.143119 -0.469 
59 127 137 
-0.0909946 0.143119 -0.469 
52 123 132 
-0.087743 0.143119 -0.469 
53 124 133 
-0.0844914 0.143119 -0.469 
50 116 123 
-0.0812398 0.143119 -0.469 
53 119 126 
-0.0779882 0.143119 -0.469 
55 123 131 
-0.0747367 0.143119 -0.469 
46 114 122 
-0.0714851 0.143119 -0.469 
49 117 123 
-0.0682335 0.143119 -0.469 
50 113 121 
-0.0649819 0.143119 -0.469 
50 114 119 
-0.0617303 0.143119 -0.469 
49 113 118 
-0.0584787 0.143119 -0.469 
51 114 122 
-0.0552271 0.143119 -0.469 
55 115 121 
-0.0519755 0.143119 -0.469 
59 111 118 
-0.048724 0.143119 -0.469 
54 111 118 
-0.0453754 0.142814 -0.468 
50 116 123 
-0.0421308 0.142814 -0.468 
45 118 123 
-0.0388861 0.142814 -0.468 
58 114 124 
-0.0356414 0.142814 -0.468 
52 111 120 
-0.0323276 0.142508 -0.467 
51 107 117 
-0.0290898 0.142508 -0.467 
58 117 126 
-0.0259075 0.142814 -0.468 
47 115 121 
-0.0226628 0.142814 -0.468 
48 115 119 
-0.0194182 0.142814 -0.468 
50 118 124 
-0.0161735 0.142814 -0.468 
55 122 126 
-0.0129289 0.142814 -0.468 
54 117 118 
-0.00968421 0.142814 -0.468 
49 111 117 
-0.00642579 0.142508 -0.467 
57 112 120 
-0.00318807 0.142508 -0.467 
54 115 124 
4.96507e-05 0.142508 -0.467 
44 110 119 
0.00328737 0.142508 -0.467 
51 114 122 
0.00652509 0.142508 -0.467 
53 113 119 
0.00978372 0.142814 -0.468 
53 116 126 
0.0130284 0.142814 -0.468 
54 113 122 
0.0162383 0.142508 -0.467 
49 115 122 
0.019476 0.142508 -0.467 
53 117 122 
0.0227623 0.142814 -0.468 
57 118 127 
0.026007 0.142814 -0.468 
55 126 133 
0.0292516 0.142814 -0.468 
55 118 126 
0.0324269 0.142508 -0.467 
60 120 126 
0.0356646 0.142508 -0.467 
58 119 128 
0.0389023 0.142508 -0.467 
56 115 126 
0.0420498 0.142203 -0.466 
59 114 122 
0.0452806 0.142203 -0.466 
62 117 125 
0.0485114 0.142203 -0.466 
62 112 120 
0.0517422 0.142203 -0.466 
61 113 120 
0.054973 0.142203 -0.466 
59 111 118 
0.0582037 0.142203 -0.466 
54 114 120 
0.0614345 0.142203 -0.466 
61 116 124 
0.0646653 0.142203 -0.466 
57 112 118 
0.0678961 0.142203 -0.466 
56 111 117 
0.0711269 0.142203 -0.466 
58 117 126 
0.0743577 0.142203 -0.466 
56 119 127 
0.0775885 0.142203 -0.466 
66 126 130 
