ply
format ascii 1.0
comment Created by Open3D
element vertex 765
property double x
property double y
property double z
property double nx
property double ny
property double nz
property uchar red
property uchar green
property uchar blue
end_header
131.837 -30.1594 -1157.82 -0.194606 0.498481 0.402727 176 142 128
164.71 -15.7123 -1123.31 -0.728435 -0.365549 0.579444 200 173 167
161.217 -23.5314 -1132.84 0.273126 0.346565 0.052095 181 147 135
453.404 -22.6164 -1088.71 -0.509051 -0.422994 0.740712 92 100 105
508.115 -36.3298 -1136.63 0.681289 -0.576529 0.451065 82 95 94
616.539 -43.6941 -1140.53 -0.329762 0.0687515 0.299618 245 237 198
641.369 -45.0413 -1143.94 0.549511 0.784428 0.287594 242 249 225
692.839 -51.5127 -1156.12 0.458929 -0.515679 0.723504 240 248 233
495.56 96.5959 -1111.33 0 0 0 117 96 90
704.46 -50.8006 -1142.24 0.170706 0.087386 0.667215 175 156 138
245.887 431.108 -1121.37 0 0 0 111 79 73
153.798 -32.7718 -1152.57 0.273826 0.129183 0.0527503 175 141 125
187.173 -32.324 -1151.57 0.0353992 0.00415068 0.162161 178 156 153
499.322 -29.7358 -1112.75 0.749095 -0.49704 0.437958 82 93 93
624.654 -52.5047 -1151.64 -0.0933162 0.0579482 0.628032 181 162 151
674.093 -52.4284 -1149.45 -0.141748 -0.0503404 0.694947 185 157 142
709.641 -32.0506 -1089.78 -0.0442002 0.988313 -0.145885 241 250 212
94.541 -41.2939 -1188.43 -0.167895 -0.0118267 0.333069 195 158 153
467.983 -17.0983 -1074.81 -0.385901 -0.196524 0.901365 104 100 103
521.874 -53.4059 -1156.25 -0.0759672 -0.0533299 0.858326 163 153 144
681.46 57.1217 -1010.19 0 0 0 132 121 121
544.117 -52.4141 -1154.03 0.0533293 0.11515 0.829513 196 178 169
651.955 -52.1778 -1140.17 -0.080355 -0.00170487 0.363797 241 248 238
693.942 -51.4582 -1128.8 0.107002 0.0170998 0.3808 240 248 231
731.541 -52.18 -1123.99 -0.0358249 -0.394529 0.496597 243 246 207
645.686 130.351 -894.916 -0.100413 -0.233399 0.682748 176 182 175
137.338 -7.84025 -1085.85 0 0 0 195 158 153
96.8796 -38.3958 -1179.73 -0.686521 -0.349897 0.637386 195 158 153
137.173 -31.2941 -1143.61 -0.00670444 0.560296 0.0955838 178 143 130
474.463 -25.252 -1077.32 0.0416113 -0.511935 0.575693 92 102 104
495.084 -39.3008 -1118.31 0.59511 -0.65652 0.462211 88 93 91
677.507 -46.273 -1120.09 -0.816837 0.407772 -0.408042 240 249 231
704.662 -63.0328 -1151.07 -0.134912 -0.012715 0.438027 178 160 142
454.182 -31.2374 -1092.57 -0.48907 -0.388045 0.771082 95 100 106
492.745 -35.3084 -1109.69 0.682119 -0.575137 0.451588 92 99 93
637.556 138.752 -951.895 -0.879544 -0.274789 0.361307 66 79 79
678.333 -48.6667 -1121.5 -0.744187 -0.666867 -0.0383874 240 249 231
713.202 -62.4688 -1142.29 0.263738 0.165892 0.493702 188 170 148
771.549 -71.1983 -1172.6 0.240233 -0.491688 0.836977 243 249 212
185.641 -63.4449 -1160.83 0.0973671 0.20516 0.318 161 135 134
165.363 -43.0137 -1163.25 -0.246008 -0.0925387 0.577621 173 139 123
744.574 -60.6922 -1130.99 0.0565227 0.478697 0.0831611 189 173 153
122.122 -24.996 -1119.34 -0.143304 0.436415 0.036952 195 158 153
152.814 -49.5491 -1180.83 -0.437106 0.210663 0.40605 202 183 184
244.728 346.208 -1149.62 0.137598 -0.112243 0.310614 117 90 77
166.083 -40.1712 -1150.52 -0.217385 0.00593463 0.338634 175 141 127
151.116 -16.2422 -1137.65 0.0884887 0.122011 0.0886648 170 135 118
243.813 -51.5406 -1167.15 0.0651847 0.091299 0.66734 186 181 180
544.083 -71.8444 -1150.56 -0.158833 -0.0302621 0.773618 193 177 168
414.358 185.079 -1134.45 -0.677592 0.234126 0.575488 47 49 49
580.27 -55.2938 -1143.52 0.0120302 0.584863 0.395027 244 208 180
673.833 -62.5925 -1149.32 -0.0236198 0.179532 0.742763 185 157 142
523.73 -62.8373 -1153.96 -0.0854251 0.0484012 0.648096 175 161 152
576.278 -61.8952 -1144.72 -0.18207 -0.0304155 0.715402 197 176 162
546.484 425.496 -1131.19 -0.481949 0.20439 0.514835 19 17 2
735.171 -69.5447 -1151.84 -0.04763 0.0716378 0.332713 241 248 221
178.413 -38.996 -1143.12 -0.832294 0.240633 0.389826 206 194 187
266.676 -49.9392 -1152.71 -0.496427 0.29416 0.510784 204 193 195
438.524 -37.564 -1104.31 -0.470925 -0.340347 0.805268 96 102 97
486.144 -40.5428 -1106.09 0.65499 -0.603927 0.454158 94 99 89
505.065 -61.9957 -1152.68 0.00877683 -0.0357117 0.896449 115 90 80
513.951 -61.5667 -1153.39 0.157865 -0.0170519 0.867477 135 114 101
418.523 -17.5574 -1104.72 -0.483395 -0.270148 0.832675 97 96 107
517.752 -64.058 -1157.28 0.140431 -0.321667 0.860383 139 125 120
710.412 -73.1531 -1163.68 -0.479586 0.752665 -0.451102 241 249 236
698.612 -59.1465 -1126.97 -0.579881 0.706467 -0.405762 240 249 215
175.016 -52.6866 -1159.56 -0.725834 0.184594 0.576377 178 147 138
501.223 -61.6405 -1156.56 0.547947 -0.692055 0.469909 89 88 88
143.798 499.73 -1188.45 0.0241428 0.756026 0.654097 98 62 55
245.224 457.574 -1136.91 0.0732973 0.756197 0.644318 109 82 66
288.963 454.225 -1135.67 -0.503237 -0.0669575 0.861399 81 89 88
463.779 392.454 -1059.42 0 0 0 86 90 83
476.069 448.391 -1140.27 -0.403233 -0.171288 0.524685 7 7 2
481.097 455.093 -1141.79 -0.101918 0.527841 0.796044 25 18 5
495.179 447.536 -1140.54 -0.224202 -0.258536 0.46126 20 21 3
503.505 442.101 -1125.6 -0.758215 -0.615527 0.215025 22 18 7
773.707 -22.506 -1138.24 -0.067155 -0.0754187 0.590261 196 177 151
514.985 431.082 -1111.61 -0.566258 -0.708826 -0.420614 39 13 9
519.107 472.544 -1165.88 -0.830035 0.254057 0.496483 33 12 7
604.197 455.021 -1147.54 0.000108619 0.0949655 0.450174 68 82 85
640.158 467.325 -1163.23 -0.572755 0.60412 0.554067 48 79 79
642.949 373.898 -1042.62 -0.751055 0.569193 0.327336 68 84 82
524.409 123.911 -1130.32 0.13597 -0.990393 -0.00296469 42 38 35
657.106 314.288 -965.038 -0.988022 0.0922869 0.112969 54 70 78
244.758 95.425 -1155.43 -0.191542 -0.034709 0.937551 151 134 129
660.173 299.47 -949.357 -0.8964 0.296785 0.299732 65 75 80
260.975 435.475 -1113.28 -0.00599713 -0.0596832 0.117363 113 84 70
275.24 424.236 -1100.51 -0.190644 -0.169494 0.159905 104 77 55
785.461 -20.168 -1134.57 -0.350344 0.14609 0.537889 201 180 153
279.662 423.213 -1096.24 0.654358 0.709653 0.261167 106 79 57
313.616 -81.4629 -1144.46 -0.180532 0.979667 -0.087523 194 196 206
461.94 398.31 -1069.76 0 0 0 86 90 83
485.182 447.912 -1135.74 0.739026 0.449186 0.502067 23 20 6
516.44 439.175 -1125.33 0.316743 -0.813115 -0.488382 39 18 15
519.308 465.698 -1161.95 -0.565992 0.143233 0.74823 33 12 7
564.508 473.416 -1171.97 -0.216202 0.328763 0.414374 38 16 20
264.208 435.537 -1116.63 -0.17252 -0.484902 0.0898166 108 84 66
453.457 440.448 -1128 0.805071 0.48943 0.33514 100 91 94
461.278 444.499 -1133.62 -0.681922 0.341982 0.646553 14 23 5
485.362 439.072 -1128.33 -0.0522995 -0.277675 0.0960014 23 19 6
537.091 439.887 -1131.17 -0.405379 -0.563383 0.0409325 17 19 7
642.21 470.539 -1174.24 -0.580462 -0.69845 -0.418608 48 79 79
519.368 461.617 -1161.62 0.316127 0.654102 0.687179 33 12 7
660.778 454.152 -1156.48 0.589647 0.395656 0.70411 61 85 87
793.735 406.923 -1099.08 0.105938 -0.822521 -0.436207 74 51 41
498.687 436.87 -1134.39 -0.721764 -0.178282 0.387263 20 19 4
500.806 437.519 -1140.84 0.880615 -0.129522 0.146758 5 5 1
787.976 406.898 -1100.78 -0.0129887 -0.87157 -0.4901 77 57 35
473.866 337.934 -1006.75 0.632729 0.154278 0.626385 92 91 87
456.515 429.444 -1124.55 0.971532 0.175429 0.0877654 86 71 59
456.835 438.989 -1141.13 0.826414 0.289573 0.389843 62 53 48
537.777 453.713 -1158.44 0.771876 -0.312942 0.553421 16 18 7
626.461 415.781 -1112.28 -0.382275 0.19757 0.272884 59 86 83
639.022 407.171 -1099.05 -0.418507 0.749314 0.513205 70 76 74
795.528 412.3 -1111.24 0.135535 -0.862467 -0.420342 79 57 38
610.902 133.305 -1009.15 -0.0484604 -0.986217 0.115574 85 98 101
287.902 439.368 -1135.67 -0.339381 -0.0304268 0.921225 59 87 91
505.371 448.551 -1159.47 0.117756 0.201514 0.628254 19 19 8
537.798 450.307 -1157.23 0.426766 0.477478 0.768041 16 18 7
599.62 113.382 -1146.16 -0.583009 -0.760833 0.285019 102 106 101
634.147 418.521 -1118.83 -0.527207 0.545364 0.432512 63 87 86
631.941 394.443 -1084.5 -0.341412 0.765675 0.545143 79 82 85
658.834 274.227 -923.449 -0.981007 0.16651 0.0804691 44 71 73
571.965 426.317 -1133.06 -0.243296 -0.148565 0.378968 56 73 76
589.606 444.235 -1157.49 0.780435 -0.437863 0.446314 67 77 82
614.673 417.563 -1123.72 0.228244 -0.0447772 0.304168 66 83 85
622.999 392.815 -1087.8 0.0255972 0.772453 0.634556 62 88 90
461.409 408.561 -1110.42 0.34244 0.309274 0.192574 77 66 62
493.155 -73.5351 -1150.45 0.308988 0.254456 0.515139 119 94 81
531.808 417.757 -1130.94 0.0838196 -0.35392 -0.00581104 12 17 7
589.509 441.196 -1156.72 0.189515 0.502385 0.843619 69 79 84
615.857 364.142 -1050.77 -0.65184 0.636424 0.412396 59 85 87
231.161 464.676 -1181.17 -0.252144 0.480435 0.837179 105 78 56
513.622 428.594 -1145.2 0.229585 -0.0644005 0.673676 27 15 8
618.983 410.29 -1121.21 -0.296778 0.757096 0.582004 67 79 81
610.373 366.866 -1059.9 -0.636671 0.616971 0.462597 77 83 83
229.727 457.104 -1178.03 -0.362696 -0.905369 -0.220811 106 85 68
463.791 418.172 -1133.08 0.452981 0.0953866 0.224205 27 24 19
481.218 435.075 -1156.81 -0.835803 -0.0568761 0.336538 25 19 6
523.229 -78.4713 -1157.92 0.181512 -0.0764083 0.74604 179 164 154
612.242 401.228 -1111.41 -0.257842 0.74051 0.569837 65 83 85
464.653 -73.6227 -1137.51 0.782015 -0.467645 0.194671 96 104 104
639.136 304.256 -975.041 -0.520096 0.378305 0.765758 65 83 77
342.183 420.884 -1135.01 0.138503 -0.482883 0.842386 36 47 46
588.171 407.751 -1123.12 0.68549 0.431102 0.586732 76 81 88
793.905 396.836 -1114.23 0.323041 0.607519 0.725648 74 55 30
801.224 398.494 -1120.79 0.601622 0.28833 0.67023 79 53 41
485.279 419.447 -1141.62 -0.307944 -0.184144 0.52541 25 19 5
510.823 428.901 -1157.85 -0.608181 0.013052 0.5891 35 12 7
601.725 389.012 -1101.52 -0.622406 0.658082 0.422163 72 87 88
465.145 391.649 -1102.54 0.911853 0.378493 0.158955 38 33 31
508.566 427.802 -1157.98 0.598329 -0.0548299 0.374087 14 15 6
351.266 58.2973 -1142.77 0.743598 0.0661021 0.653102 71 65 62
601.514 407.948 -1130.47 -0.6629 0.623332 0.414753 64 89 82
782.012 377.187 -1093.31 0.182406 0.156359 0.668284 77 57 37
788.5 381.463 -1098.19 0.621262 0.372397 0.689459 79 53 42
130.094 313.501 -1176.77 -0.57556 -0.744231 0.338897 110 80 64
218.88 417.304 -1135.27 0.048138 -0.977322 -0.206217 105 66 62
258.782 406.574 -1122.66 -0.711169 -0.557288 0.281431 113 82 69
492.882 408.184 -1142.07 0.0522076 0.0493414 0.627612 20 21 2
597.419 384.194 -1099.15 -0.777849 0.537255 0.326048 64 89 82
257.312 409.836 -1129.14 0.711718 -0.408331 -0.571598 117 88 76
241.212 434.72 -1167.01 -0.0599131 0.0690349 0.297982 106 79 57
266.588 409.369 -1128.75 -0.848256 -0.458206 0.265537 99 71 54
462.594 407.514 -1132.25 0.799916 0.504556 0.324897 15 24 6
473.72 406.892 -1142.53 0.0306884 -0.2805 0.457942 18 16 9
589.579 382.424 -1099.49 0 0 0 75 81 92
185.881 441.127 -1178.61 0.200185 -0.0226942 0.519328 96 64 59
419.343 353.936 -1056.74 -0.738168 -0.0230687 0.671261 48 67 57
487.672 407.939 -1142.48 -0.788694 -0.0986782 0.402359 27 17 3
584.822 395.38 -1121.68 -0.585047 0.630526 0.464892 62 79 82
588.159 383.848 -1104.75 0.355995 0.736005 0.575817 75 84 96
294.155 248.156 -1153.07 0.117074 0.0924188 0.637924 136 105 95
649.095 234.072 -888.434 -0.984369 0.118701 -0.119585 77 85 88
830.147 412.77 -1155.09 0.250632 0.656531 0.711442 76 56 48
215.145 405.908 -1132.02 -0.0490222 -0.512436 0.134205 98 69 59
228.074 439.561 -1179.58 -0.127157 -0.935327 -0.330143 117 88 76
479.368 325.1 -1017.23 0.911112 0.354756 0.209813 14 7 0
473.201 358.308 -1066.43 0 0 0 15 24 6
569.476 394.192 -1124.52 0.27489 0.594872 0.589394 47 65 74
579.177 374.357 -1093.62 0 0 0 64 82 80
577.805 344.63 -1049.36 -0.503653 0.628238 0.592406 62 79 82
183.279 428.023 -1168.78 -0.325205 -0.49151 0.409589 95 71 54
220.55 405.754 -1134.5 0.302585 -0.100677 0.0232752 105 66 62
650.058 270.023 -946.923 -0.738291 0.360226 0.47525 53 70 73
195.96 402.279 -1130.33 -0.129853 -0.891203 -0.434621 101 70 68
317.054 401.143 -1134.79 -0.152409 -0.255914 0.928249 77 86 89
397.03 376.269 -1102.35 -0.900085 -0.417709 0.119603 70 84 83
570.629 363.394 -1083.26 -0.181885 0.801634 0.569475 63 81 79
618.573 300.238 -993.682 -0.859363 -0.199847 0.45662 63 83 83
470.357 -58.5323 -1114.1 0.765818 -0.621184 0.166297 92 100 99
804.484 399.483 -1146.14 0.244591 -0.227807 0.244129 71 70 49
142.924 431.904 -1182.86 -0.405512 0.0160686 0.579383 97 65 55
151.954 432.178 -1178.1 -0.120658 0.665593 0.690191 96 68 59
379.434 393.838 -1126.82 -0.731811 -0.383322 0.563486 46 64 58
251.12 39.5184 -1168.2 0.0904435 0.152718 0.332968 167 162 163
802.913 380.346 -1120.47 0.00157703 -0.467357 -0.0193769 75 51 42
276.202 237.757 -1160.55 0.359969 -0.0691638 0.526902 133 99 90
809.675 383.421 -1124.25 0.367051 -0.923717 -0.109635 64 57 47
134.172 434.571 -1185.28 0.0418889 0.317733 0.36351 102 70 57
192.147 421.798 -1168.83 -0.498372 0.0969783 0.705701 99 65 57
475.806 340.406 -1051.54 0 0 0 17 19 10
649.132 266.499 -944.727 -0.928881 -0.00234033 0.325391 55 71 68
206.561 425.777 -1178.07 0.0374907 0.509739 0.486018 100 68 59
339.327 402.007 -1145.44 -0.01809 -0.314204 0.949183 37 49 41
557.235 356.046 -1081.16 -0.699279 0.565176 0.437705 61 57 62
815.491 395.264 -1149.53 0.285021 -0.956001 -0.0694661 80 53 45
553.12 346.196 -1070.5 -0.77084 0.421703 0.430903 65 82 78
802.585 379.31 -1132.32 0.312402 0.39318 0.742732 76 57 44
815.642 377 -1130.71 -0.397884 0.32454 0.332475 69 52 37
244.876 410.164 -1169.05 -0.0121363 -0.0866081 0.331007 108 78 66
802.434 137.758 -1134.77 -0.00705417 0.047548 0.930175 130 113 95
467.692 387.245 -1139.35 0.575517 0.0792596 0.160997 20 12 3
487.725 388.642 -1141.8 -0.719981 0.0671425 0.576344 19 14 3
423.535 -52.4568 -1119.11 -0.317778 -0.358246 0.850358 101 105 107
493.098 387.091 -1142.51 0.502181 0.0169485 0.720195 20 17 5
500.035 399.344 -1157.56 -0.809047 -0.132583 0.418939 20 17 3
820.429 394.216 -1155.32 0.644301 -0.0452483 0.763432 71 53 42
425.886 245.526 -1089.52 -0.950852 -0.126559 0.279757 87 95 93
820.965 387.231 -1149.86 -0.467963 0.013645 0.156488 71 56 41
62.8651 467.903 -1252.7 0 0 0 96 70 54
205.829 418.196 -1178.53 0.698612 0.472511 0.537285 103 67 55
449.528 315.645 -1026.86 -0.795316 -0.123456 0.567572 58 68 67
473.512 391.675 -1144.67 0.2546 -0.650581 0.456105 18 15 0
542.165 355.132 -1089.05 -0.435802 0.709185 0.554196 34 24 24
802.799 385.295 -1146.25 -0.339996 -0.0308262 0.244747 76 61 55
818.393 385.351 -1148.64 0.1749 -0.023483 0.328227 64 54 39
408.81 351.433 -1082.56 -0.936668 -0.303367 0.174989 65 78 75
474.226 353.827 -1088.31 0.688622 0.642028 0.337044 17 7 5
524.676 379.079 -1133.63 -0.419131 0.629614 0.575157 22 18 7
535.703 356.09 -1094.86 -0.316638 0.763915 0.552517 15 18 7
648.242 256.339 -943.912 -0.887607 0.210841 0.388907 56 71 70
799.242 370.823 -1124.97 0.675331 -0.69602 0.243897 73 56 42
820.594 372.336 -1128.01 0.0227856 0.772332 0.63481 67 40 34
233.501 384.578 -1138.41 0.0365792 0.249919 0.369556 111 78 61
803.432 97.8874 -1148.35 -0.104285 0.138337 0.439909 153 132 115
514.71 394.283 -1157.71 0.098705 -0.586905 0.006526 23 16 5
169.656 -94.1406 -1176.16 0.825467 0.192573 -0.530584 173 138 121
826.464 377.525 -1150.08 -0.0208966 -0.0176104 0.341129 69 53 37
811.072 361.419 -1113.78 0.0358059 0.56825 0.80567 75 47 40
130.218 410.662 -1176.84 -0.697409 0.017654 0.716457 109 77 55
273.925 378.382 -1130.19 -0.111995 0.0509376 0.3807 81 66 58
486.332 378.545 -1143.04 -0.207978 0.0222127 0.622093 20 15 4
514.693 392.505 -1158.76 0.0935589 0.418825 0.529785 24 16 4
650.025 250.478 -937.093 -0.865935 0.239775 0.421559 51 68 70
816.365 365.978 -1124.75 -0.162386 -0.837353 -0.453671 73 50 41
191.535 397.931 -1168.67 -0.439483 -0.117003 0.601869 107 78 63
205.342 387.272 -1153.91 -0.681692 0.0112066 0.674087 108 80 68
794.205 348.718 -1133.58 0.376912 -0.122291 0.780383 69 49 37
812.685 369.098 -1142.26 -0.111742 -0.44161 0.23721 68 50 36
233.714 376.3 -1135.21 -0.0506245 0.070596 0.58137 119 84 74
459.103 300.495 -1015.69 -0.733564 -0.0483512 0.672218 76 79 80
477.294 333.709 -1069.24 0 0 0 17 12 8
802.417 380.18 -1154.82 -0.942679 0.09283 -0.320527 93 87 74
203.75 376.63 -1140.83 0.01986 0.36216 0.494289 108 79 68
469.359 4.10564 -1065.78 -0.558391 -0.287857 0.778035 93 99 99
507.965 375.65 -1142.77 -0.454705 0.708379 0.539855 20 18 8
473.208 -77.2354 -1148.35 0.119631 -0.504367 0.855162 156 155 155
516.16 344.829 -1094.16 -0.329579 0.692682 0.620008 2 4 1
165.021 357.988 -1109.15 -0.0706191 0.166643 0.790944 105 79 67
394.898 362.338 -1124.16 -0.560129 -0.5508 0.424734 63 74 75
406.592 348.684 -1098.88 -0.94306 -0.273269 0.189634 67 82 77
474.657 366.387 -1142.05 -0.0514879 0.608816 0.588756 21 13 5
506.361 368.639 -1134.96 -0.753032 0.494591 0.433961 10 15 5
482.44 366.836 -1142.35 -0.10328 0.697425 0.668198 21 14 5
205.523 -44.1444 -1134.09 0.100039 -0.0615593 0.10106 161 140 136
649.899 229.604 -920.264 -0.969503 0.146351 0.110873 48 66 67
648.277 216.588 -901.071 -0.978986 0.1429 -0.0579954 51 71 69
218.538 358.634 -1123.7 0.209168 -0.0895203 0.047107 110 74 63
378.241 359.582 -1133.73 -0.858268 -0.393268 0.314947 46 54 60
481.05 317.048 -1058.02 0 0 0 19 14 10
57.3502 384.48 -1165.73 0 0 0 114 76 67
482.309 310.186 -1049.59 0 0 0 8 6 0
478.748 322.95 -1074.93 0 0 0 11 11 7
649.916 210.179 -885.86 -0.248308 0.000914503 0.958051 241 248 240
814.631 346.862 -1132.13 0.187661 0.0546494 0.415331 60 49 31
236.866 358.962 -1142.88 0.115773 -0.085775 0.368893 122 88 79
810.852 218.172 -1134.74 0.0415925 0.424491 0.86583 96 74 57
429.087 310.735 -1055.75 -0.879411 -0.235403 0.41379 74 78 73
649.305 222.695 -907.731 -0.894167 0.38167 0.234081 52 65 64
182.599 358.673 -1139.21 -0.0920862 -0.197818 0.269284 105 69 62
488.623 334.039 -1105.65 -0.641061 -0.0885822 0.76236 3 3 3
648.728 206.176 -885.399 -0.245341 0.00902195 0.939817 241 248 240
517.825 205.897 -1145.47 -0.0578311 0.0779948 0.987853 3 5 1
355.735 356.279 -1145.89 0.00431486 -0.00855476 0.999954 24 41 42
569.199 308.674 -1066.14 -0.546764 -0.082785 0.833184 58 80 79
648.912 223.208 -914.984 -0.948793 0.282031 0.142305 50 61 61
807.211 346.657 -1147.79 0.349318 -0.139204 0.733553 74 47 35
798.209 334.722 -1118.86 -0.260378 0.727367 0.464559 63 38 33
103.602 378.817 -1184.38 0.752282 -0.290898 -0.591143 103 78 60
152.454 349.592 -1141.53 0.279566 0.164788 0.193725 99 76 63
478.303 323.376 -1093.87 0.988248 0.139953 0.0614729 2 3 0
809.312 347.736 -1148.57 -0.956091 -0.167171 -0.232444 64 42 30
297.33 -73.4099 -1154.34 -0.389191 -0.0664775 0.675029 190 190 188
110.254 370.696 -1176.86 -0.340042 0.0993442 0.65286 105 78 70
243.378 347.807 -1143.63 0.0795189 -0.0175945 0.532772 117 90 79
366.335 347.639 -1146.44 0.132324 -0.0360808 0.936112 22 34 27
478.888 319.173 -1090.04 0.964066 0.252423 0.0828196 0 2 1
180.469 347.57 -1141.98 0.797572 -0.0172453 -0.209065 102 75 60
520.832 323.544 -1102.95 -0.164178 -0.967959 -0.190002 1 5 0
639.232 242.375 -956.664 -0.831067 0.282063 0.479341 56 76 73
166.546 359.247 -1168.85 -0.554612 -0.210711 0.532904 111 81 68
483.578 296.997 -1056.69 0 0 0 0 1 0
577.889 294.619 -1054.65 -0.348007 0.631215 0.692156 54 71 66
792.069 327.083 -1134.18 0.101635 -0.0654614 0.433648 69 56 39
138.089 341.66 -1135.23 -0.333416 0.565083 0.754662 100 84 63
154.201 366.717 -1182.53 0.86507 -0.157334 -0.47634 105 77 60
260.82 340.315 -1141.07 0.549554 -0.180262 0.0582324 127 94 84
806.857 329.47 -1132.35 -0.0282599 -0.243335 0.254091 62 45 28
812.347 327.228 -1134.21 -0.547371 0.173356 0.0928168 66 50 35
153.239 337.482 -1140.85 0.272361 0.188239 0.494596 105 77 63
486.996 280.329 -1032.5 0.927919 0.35655 0.108806 57 61 56
542.523 314.368 -1101.45 -0.335307 -0.876194 -0.10289 6 12 7
439.559 284.837 -1046.89 -0.792996 -0.103592 0.588356 71 78 79
478.189 319.466 -1112.29 0.847701 0.298757 0.405597 2 4 1
479.751 322.319 -1115.71 0.517913 -0.472608 0.713028 1 4 3
798.916 334.151 -1146.03 -0.0314584 0.68933 0.723764 68 55 42
274.193 335.619 -1145.03 0.187918 -0.127785 0.871863 121 88 76
279.592 343.715 -1156.19 -0.168688 -0.808119 0.564347 102 74 75
541.261 314.011 -1106.76 -0.400064 -0.495078 0.681458 0 4 0
594.745 283.944 -1051.05 -0.248569 -0.905536 -0.0902186 65 80 81
150.767 332.107 -1135.28 -0.667637 -0.535939 0.51675 106 80 67
562.015 303.59 -1091.48 -0.268611 -0.891063 -0.0622643 53 72 73
481.568 301.519 -1087.8 0.989055 -0.109043 -0.0993964 0 0 0
628.687 242.399 -975.586 -0.899243 -0.0784454 0.430358 56 76 73
790.547 318.854 -1132.16 0.5186 0.068537 0.684084 65 49 31
814.131 317.392 -1130.54 -0.233587 0.0261226 0.380789 72 53 37
233.753 -82.2878 -1161.72 0.126725 -0.160805 0.367965 180 171 164
67.3343 341.191 -1162.99 0.000799872 0.382549 0.874306 101 74 57
187.657 341.267 -1166.74 0.496796 -0.0656251 0.277382 112 85 76
354.819 -80.8058 -1153.92 -0.108807 -0.0648275 0.832058 85 90 84
478.608 311.093 -1110.66 0.325467 -0.856372 -0.400872 1 1 0
516.39 310.256 -1114.9 -0.207874 -0.24425 0.942018 0 4 0
559.81 297.824 -1096.46 -0.570737 -0.17135 0.778756 29 35 39
777.553 312.824 -1125.22 0.76949 -0.556353 0.313615 96 110 101
287.461 319.819 -1139.97 -0.0507033 -0.44666 0.174119 129 90 81
486.726 276.504 -1049.88 0.6941 0.668882 0.266125 67 76 58
147.329 324.943 -1144.4 -0.324445 0.482995 0.813296 115 81 71
226.817 317.211 -1138.95 -0.614263 0.123212 0.756671 122 93 83
400.481 315.982 -1136.46 -0.528755 -0.222746 0.805856 53 68 69
649.689 186.799 -886.361 -0.407296 -0.07501 0.864589 240 248 238
815.821 316.847 -1149.63 0.222723 -0.0265903 0.62132 72 53 37
79.0564 343.721 -1186.24 0.362392 -0.88325 0.297557 114 83 70
203.879 318.957 -1142.08 0.107475 -0.0614567 0.13377 115 84 75
791.374 316.557 -1149.89 -0.514158 -0.0118584 0.162126 100 96 90
137.786 335.503 -1175.84 -0.553404 0.105692 0.82618 102 66 56
523.722 297.565 -1116.52 -0.15975 -0.112587 0.971972 1 5 0
771.068 298.618 -1117.56 0.836565 -0.171134 0.417564 109 105 108
226.78 312.032 -1138.8 -0.0799862 -0.609413 0.113171 121 96 86
802.761 308.236 -1147.53 -0.308276 0.158885 0.421018 67 52 40
810.688 298.584 -1122.69 0.0457227 -0.445963 0.68048 72 53 36
249.387 312.256 -1144.66 0.665872 -0.725498 0.17398 126 96 91
318.569 312.085 -1145.73 -0.144354 -0.0640367 0.987451 83 94 90
489.867 261.315 -1041.17 0.696344 0.669991 0.257326 48 52 45
628.953 231.397 -983.527 -0.952214 -0.276132 0.123564 58 73 73
813.117 298.584 -1133.25 0.20969 -0.857619 0.108729 78 56 36
140.521 302.137 -1125.71 -0.274923 -0.0794971 0.836162 87 74 56
152.24 324.587 -1177.45 0.218281 -0.413914 0.0889332 110 81 70
808.311 297.271 -1131.09 -0.541064 0.0820186 0.13151 73 55 36
136.376 295.881 -1127.82 -0.0151635 -0.0424045 0.58632 93 71 62
141.891 298.197 -1127.04 0.302268 -0.213192 -0.241965 87 73 61
150.957 306.178 -1139.61 -0.618017 0.317172 0.719345 107 81 66
130.16 321.25 -1171.93 -0.668528 -0.15417 0.727531 108 83 63
533.509 286.191 -1117.92 -0.19128 -0.51482 0.742857 1 4 0
793.19 298.455 -1135.65 -0.729248 0.6267 0.27467 66 53 40
152.911 319.952 -1178.6 0.0737613 0.285321 0.446113 117 78 75
138.697 295.042 -1125 0.443554 0.881747 0.160561 96 82 67
211.451 300.729 -1140.71 0.275652 -0.220514 0.37214 119 89 88
159.879 313.782 -1172.38 -0.645952 0.221589 0.730509 119 85 77
419.146 277.04 -1095.05 -0.907358 0.00730413 0.420295 80 86 84
484.597 278.873 -1100.38 0.963685 0.2618 0.0526486 0 1 0
492.243 293.766 -1137.58 -0.216542 -0.766752 0.527975 0 2 0
649.538 178.203 -886.974 -0.770719 0.015298 0.49515 238 245 236
776.568 290.492 -1133.45 0.541593 -0.271618 0.660684 136 130 123
153.492 294.413 -1139.27 0.859462 0.0324601 -0.0568056 108 77 61
127.391 313.666 -1177.09 0.861341 -0.0891402 -0.500146 111 85 70
163.529 309.249 -1167.77 -0.132518 0.782568 0.608299 116 87 75
204.039 298.949 -1151.64 0.213766 -0.784913 0.0875886 123 96 88
485.667 273.109 -1092.01 0.972755 -0.185682 -0.138816 1 1 1
807.351 293.684 -1146.92 -0.195541 -0.427123 0.709369 60 40 27
140.896 305.927 -1168.13 -0.699335 -0.304882 0.640769 103 74 65
166.35 296.303 -1143.82 0.0795953 0.344354 0.406437 108 74 65
227.712 294.903 -1143.48 -0.331978 0.288785 0.515488 121 86 76
803.896 290.035 -1147.22 0.15348 0.0285955 0.792536 59 41 28
813.479 291.111 -1146.95 -0.111754 0.482501 0.629523 64 48 32
96.0022 291.881 -1137.74 0.0429222 -0.600174 0.584831 103 79 65
175.688 287.227 -1142.03 0.0317617 -0.100177 0.257124 111 89 78
176.674 303.901 -1166.9 0.933567 -0.344813 -0.097756 120 91 81
235.659 287.932 -1133.69 0.615502 -0.0986323 0.0508852 125 83 77
338.216 291.891 -1144.67 -0.275657 -0.327572 0.892127 86 89 90
146.236 -42.0544 -1145.08 -0.395852 -0.0219462 0.498018 170 135 118
497.521 64.7006 -1079.95 0 0 0 115 88 82
344.158 289.886 -1144.68 -0.0830607 -0.223715 0.937091 76 83 84
489.487 255.778 -1061.36 0 0 0 0 0 0
784.232 289.119 -1146.52 -0.257957 0.0191486 0.54887 93 89 78
784.162 284.493 -1135.28 0.295064 0.528356 0.791514 74 56 39
101.503 305.057 -1173.95 -0.313252 -0.947462 0.0647256 109 83 70
161.281 289.179 -1150.26 0.311665 -0.405018 0.174947 110 86 73
494.129 236.074 -1023.79 0.915076 0.386054 0.116615 91 81 79
784.121 281.466 -1135.65 0.338115 -0.520205 0.78426 75 66 49
810.748 280.805 -1134.54 0.538773 0.144587 0.82995 74 60 41
560.735 272.96 -1116.78 -0.714999 -0.345917 0.60755 0 7 1
589.51 255.169 -1077.14 -0.902582 -0.244258 0.347743 66 75 77
160.732 -92.5948 -1163.82 -0.0684606 -0.8939 0.425846 170 135 118
793.825 276.022 -1133.75 0.00831442 -0.0741715 0.524252 56 41 25
204.587 294.338 -1167.6 -0.0072594 -0.51053 0.162235 114 87 74
243.427 284.337 -1144.14 0.344286 0.588673 0.731389 130 105 96
284.04 284.672 -1145.59 0.0335257 -0.0818715 0.623634 129 90 85
483.557 276.519 -1129.15 0.889086 0.412597 0.198218 0 3 0
107.06 281.072 -1143.4 0.245205 -0.43378 -0.129924 123 115 100
648.903 169.69 -884.99 -0.874399 0.002527 0.365876 241 248 240
767.256 269.576 -1121.91 0.877937 -0.281495 0.387283 84 83 83
782.997 276.899 -1149.04 0.0426613 -0.0867132 0.296333 87 89 83
126.599 264.572 -1121.3 -0.276749 -0.03795 0.385707 113 84 70
179.575 271.575 -1134.12 0.672792 0.739832 7.666e-05 114 93 80
494.263 231.894 -1038.71 0.832822 0.531419 0.154923 10 15 3
802.649 268.042 -1148.65 -0.250678 0.0142033 0.420812 60 37 24
121.523 271.21 -1138.11 -0.00825259 -0.528525 -0.0665902 113 84 72
154.985 267.498 -1134.87 -0.345102 -0.0682017 0.440681 112 86 73
375.019 270.662 -1145.02 -0.057741 -0.247927 0.952033 61 69 68
496.822 218.604 -1017.72 0.9276 0.253245 0.128809 82 76 68
133.939 283.85 -1176.68 -0.00606386 -0.476355 0.148763 108 77 68
181.529 270.017 -1144.65 0.66313 0.575376 0.167918 117 99 85
797.687 263.982 -1134.29 -0.924237 -0.371266 -0.0891427 53 33 23
475.023 -79.2143 -1157.53 0.0433727 -0.265891 0.665562 148 134 134
800.074 264.3 -1135.14 0.778805 -0.270266 0.566056 53 35 26
113.989 265.797 -1135.78 -0.374342 -0.904125 0.205976 113 78 63
95.1606 281.008 -1181.6 0.100485 0.0312853 0.153024 117 78 66
143.236 268.472 -1150.81 0.212552 0.0177986 0.113355 109 82 70
638.489 186.061 -943.911 -0.936202 0.0836115 0.292461 53 64 64
668.503 180.699 -921.189 0.89028 -0.300923 0.341828 97 110 105
61.1379 284.522 -1193.77 -0.536055 -0.180366 0.507659 121 79 69
539.062 261.17 -1134.73 -0.641393 -0.474795 0.602648 0 3 2
765.873 256.444 -1125.04 0.743 -0.555179 0.373801 118 114 105
794.443 259.375 -1147.18 0.564274 0.234906 0.761787 71 51 30
806.673 254.391 -1125.5 -0.440497 0.591734 0.23923 84 63 41
809.592 254.44 -1125.66 0.0182131 0.822534 0.568424 88 65 44
600.829 227.232 -1067.13 -0.863246 -0.143546 0.416204 46 62 62
785.431 259.708 -1147.99 -0.0917789 0.283623 0.402128 77 58 47
805.844 247 -1125.67 -0.461646 -0.47241 0.332976 87 71 53
805.041 245.539 -1128.32 -0.193683 -0.0359036 0.269074 83 68 49
105.308 256.264 -1134.32 0.082082 0.156711 0.258447 119 95 79
154.498 258.859 -1153 -0.0742541 -0.207852 0.40757 118 91 83
178.824 266.628 -1166.63 -0.667627 -0.181675 0.704275 132 109 98
130.919 249.714 -1128.79 0.224433 0.236433 0.261417 111 91 79
162.347 257.698 -1145.06 -0.598938 -0.0617131 0.798414 108 93 81
167.503 265.321 -1166.18 -0.5819 -0.406917 0.704139 119 100 87
495.385 220.904 -1046.7 0 0 0 1 0 0
638.19 177.806 -942.951 -0.930771 0.0963869 0.332078 55 68 68
650.017 160.131 -887.134 0.292099 -0.291246 0.792474 113 120 115
95.1498 265.887 -1178.83 0.115992 0.17996 0.192688 109 91 79
335.581 -73.0604 -1159.4 0.110651 -0.432361 0.710998 87 95 95
352.701 -62.8397 -1159.41 0.178716 -0.303196 0.591836 89 91 87
210.087 261.659 -1166.26 -0.316311 -0.197904 0.855716 131 105 97
346.502 256.17 -1156.54 0.368833 -0.260711 0.726588 110 85 78
349.438 256.756 -1156.93 -0.207971 -0.282801 0.809415 104 84 77
756.106 237.102 -1110.42 0.847462 0.0725379 0.507738 109 114 101
805.776 251.592 -1146.35 -0.182658 0.171274 0.386496 70 54 34
513.38 -72.2671 -1154.13 0.24663 0.0262711 0.761918 134 110 96
793.66 245.109 -1131.78 -0.15645 0.572881 0.477016 79 59 41
174.489 248.73 -1145.49 0.965765 0.14634 -0.2142 126 101 94
92.107 256.968 -1175.82 0.261616 -0.884785 0.385632 123 87 87
591.143 223.633 -1086.8 -0.696406 -0.367885 0.584242 55 63 65
106.342 247.416 -1170.6 0.253996 -0.031572 0.097123 103 94 78
230.708 247.425 -1169.42 -0.129793 0.0549289 0.729076 134 106 99
459.173 204.01 -1035.06 -0.784793 -0.15398 0.599848 79 90 91
487.569 238.322 -1139.55 0.957539 0.270065 0.098024 2 1 0
590.955 221.51 -1088.03 -0.831374 0.184502 0.437449 47 55 56
639.593 168.028 -938.211 -0.964299 -0.0296207 0.222833 53 66 65
201.11 245.987 -1168.46 -0.0932846 -0.309342 0.826371 127 104 97
281.092 246.195 -1165.91 -0.592567 -0.0536798 0.80373 138 107 98
498.745 242.52 -1155.76 -0.290497 -0.61079 0.736578 0 3 0
505.5 240.396 -1155.21 -0.269914 -0.312239 0.882291 0 5 0
814.755 236.701 -1151.8 -0.0615586 -0.170978 0.205144 91 73 56
805.706 232.081 -1125.35 -0.303521 0.566635 0.311974 96 82 60
84.3832 248.942 -1180.76 0.0155453 0.774385 0.632524 95 93 72
489.514 229.393 -1121.86 0.888399 0.4469 0.105014 0 1 0
627.796 175.274 -963.138 -0.855914 0.186806 0.415816 62 73 73
756.863 226.611 -1116.44 0.712324 -0.333668 0.465252 114 126 121
808.189 231.668 -1132.42 -0.593843 -0.442162 -0.209724 92 74 58
811.225 231.306 -1133.42 0.0354899 -0.910113 0.360517 90 75 60
110.236 235.346 -1145.71 0.433074 0.845199 0.313187 111 99 81
477.852 188.339 -1014.24 -0.778645 -0.116265 0.609427 87 96 94
642.908 158.048 -921.384 -0.983376 -0.00095005 0.10169 51 62 58
101.403 230.437 -1140.8 0.787466 0.0384431 -0.603675 118 94 80
227.754 232.969 -1145.67 0.944137 0.267268 -0.192806 131 111 103
424.857 216.364 -1099.57 -0.952844 -0.0683133 0.288034 95 95 91
122.528 225.703 -1131.54 0.24942 0.0040964 -0.059606 121 98 86
98.6914 240.823 -1178 0.373882 0.107602 0.381671 119 100 87
117.611 240.505 -1177.02 0.634643 0.769776 -0.0683533 119 100 87
143.985 227.396 -1152.66 0.0771648 0.0357748 0.380812 123 95 85
154.376 227.811 -1150.68 -0.0650271 0.148428 0.514712 118 95 83
459.214 195.184 -1036.66 -0.778812 -0.101557 0.618506 81 94 91
178.245 159.338 -1168.05 0.717507 0.288076 0.232039 135 116 107
495.268 206.731 -1068.6 0 0 0 6 3 0
802.159 145.21 -1132.73 -0.281232 -0.0940187 0.479496 127 109 92
580.106 217.392 -1108.39 -0.6213 -0.165315 0.546046 48 56 58
811.98 230.55 -1149.03 -0.0709113 0.502106 0.64396 93 79 59
118.277 220.462 -1122.64 0.380401 -0.0786801 -0.314808 119 96 87
758.524 219.282 -1122.67 0.612487 -0.161741 0.660272 119 126 120
399.82 228.285 -1156.1 0.236748 0.242283 0.89854 113 98 93
425.426 208.233 -1098.8 -0.946443 -0.0329795 0.31683 95 92 86
638.916 147.314 -895.108 -0.982184 0.047349 0.137648 89 92 81
773.514 219.063 -1133.89 0.221134 0.0495819 0.693774 90 72 55
782.377 217.101 -1132.24 0.0852293 0.0288601 0.583947 94 77 58
806.306 216.998 -1134.35 -0.31372 0.118064 0.751247 92 71 55
477.956 180.686 -1015.22 -0.76878 -0.0313854 0.630691 85 97 98
336.788 217.959 -1156.39 0.115711 -0.0734327 0.84214 136 107 103
343.349 216.238 -1156.83 -0.0186712 -0.163837 0.862407 131 105 101
509.753 220.721 -1156.49 -0.298243 0.332273 0.894788 1 2 0
133.314 220.111 -1167.69 0.123386 0.207479 0.408895 128 103 93
490.316 213.504 -1138.52 0.885614 0.425384 0.186377 1 1 1
537.339 215.576 -1145.77 -0.779843 0.330643 0.531526 1 5 0
772.55 207.56 -1134.52 0.127122 -0.0147214 0.741417 94 78 62
807.826 211.46 -1134.83 -0.304802 -0.279614 0.626128 99 75 64
810.474 212.169 -1134.96 0.0524502 0.0861101 0.958304 101 73 63
491.184 207.218 -1130.81 0.974988 0.207175 0.0715331 8 5 2
599.462 189.93 -1066.29 -0.833561 -0.0882726 0.520628 49 61 59
748.036 169.416 -1123.18 0.734848 -0.306514 0.502707 125 134 127
171.48 207.692 -1153.26 0.286317 0.00642644 0.45857 124 105 95
764.067 205.943 -1133.93 0.087331 0.0432973 0.834943 114 107 101
164.994 208.044 -1153.36 -0.230339 0.156976 0.819384 125 107 95
345.647 209.319 -1157.01 0.103939 0.206112 0.804099 132 103 99
638.821 142.807 -895.536 -0.902682 -0.379772 0.202332 172 186 166
750.252 201.386 -1115 0.687236 -0.67556 0.267067 131 128 123
95.3897 214.177 -1176.28 -0.693266 -0.0449603 0.719278 123 97 86
234.751 210.297 -1166.2 -0.0104051 -0.385226 0.363225 141 114 109
493.23 196.116 -1111.76 0.95551 0.249655 0.0263756 1 2 0
520.91 206.965 -1145.47 0.148828 0.0867582 0.98505 1 2 0
131.825 199.751 -1140.03 -0.0110999 -0.121194 0.149309 120 99 90
426.832 188.27 -1096.89 -0.956466 -0.018727 0.288746 84 90 87
597.208 183.77 -1062.95 -0.763882 0.592625 0.255499 18 25 17
477.906 40.0087 -1045.52 -0.716919 -0.0627992 0.689795 91 99 101
638.417 148.63 -943.836 -0.87478 -0.125335 0.416639 59 70 70
764.708 202.64 -1134.79 0.164692 -0.599791 0.573837 111 96 83
104.678 197.748 -1144.45 0.690815 0.146171 -0.0676835 118 104 96
166.443 198.159 -1149.01 0.156747 -0.0351633 0.278582 124 108 96
512.704 201.406 -1145.92 -0.127572 0.228119 0.956106 4 6 2
580.831 187.211 -1098.64 -0.65631 -0.14721 0.45961 33 46 43
146.467 198.075 -1151.92 -0.184299 0.0113078 0.490098 123 105 98
427.271 187.831 -1095.15 -0.958701 -0.0484131 0.280266 79 87 86
494.403 187.635 -1101.35 0.98633 -0.022373 -0.0491196 10 7 5
797.274 196.612 -1134.4 -0.340958 0.204687 0.378493 102 77 63
407.17 195.266 -1144.06 -0.48956 0.499289 0.702679 49 39 36
598.885 173.28 -1041.44 -0.754077 0.625291 0.200941 27 34 40
550.992 190.765 -1128.42 -0.631592 0.342855 0.606196 4 5 2
124.334 189.877 -1143 0.233194 0.0339298 0.302031 121 104 99
491.815 190.125 -1128.28 0.349497 -0.917073 -0.191907 0 1 0
793.925 190.446 -1134.32 -0.165979 -0.270284 0.545429 104 81 64
126.656 197.76 -1175.78 -0.608114 0.131347 0.782909 113 111 101
521.912 190.72 -1146.41 -0.187258 0.104036 0.943988 1 3 0
642.461 137.924 -931.084 -0.974426 -0.0541743 0.105202 50 66 62
305.933 187.118 -1156.8 0.401301 -0.40543 0.597129 148 122 111
518.557 188.148 -1146.25 0.119582 0.151547 0.838175 2 5 1
572.801 181.742 -1112.24 -0.499634 0.762747 0.311329 16 17 16
577.646 173.567 -1071.96 -0.519088 0.756917 0.34875 48 56 58
766.933 188.77 -1135.48 -0.00803641 0.140451 0.849495 103 86 66
783.478 190.614 -1150.54 -0.0820068 -0.129583 0.466463 95 79 62
358.126 187.495 -1156.05 0.0169602 0.0666096 0.947891 130 109 105
641.05 137.897 -941.334 -0.950497 -0.132495 0.221684 60 69 67
499.394 165.655 -1053.6 0.976858 0.213461 -0.0134598 2 3 0
525.631 183.221 -1133.21 -0.405498 0.830735 0.38138 4 5 1
638.686 129.204 -902.268 -0.899094 -0.0988229 0.158876 123 128 118
124.186 180.067 -1149.71 0.223574 -0.0542601 0.22507 118 102 89
194.867 181.007 -1149.7 0.184791 -0.318651 0.200676 137 115 111
500.297 162.071 -1044.85 0.968859 0.247611 -0.000412969 72 52 55
535.549 174.568 -1114.73 -0.324475 0.212547 0.889558 4 6 1
589.784 159.564 -1046.66 -0.929527 0.0972793 0.348461 40 49 47
364.74 -78.4791 -1143.3 0.0930964 0.152282 0.492166 85 94 87
750.586 175.4 -1122.48 0.767596 -0.102578 0.512215 127 131 125
136.083 175.985 -1140.87 0.318758 0.550871 0.048191 126 103 93
263.369 177.44 -1162.02 -0.130044 0.0423051 0.921425 146 120 113
422.566 169.889 -1110.18 -0.92415 0.0939043 0.332438 76 86 80
627.451 141.334 -964.242 -0.606575 -0.451704 0.629272 77 90 89
639.631 136.363 -947.918 -0.954611 -0.115602 0.244173 61 73 72
748.13 174.656 -1120.47 0.510189 -0.407564 0.370862 121 126 121
763.917 177.643 -1134.68 -0.0907268 -0.0156355 0.768594 108 79 67
508.079 173.96 -1128.13 -0.498809 0.763568 0.410065 3 4 0
643.011 128.733 -922.735 -0.969152 0.00956265 -0.184872 63 73 71
523.907 118.781 -1150.53 -0.0140376 -0.260663 0.825743 103 72 62
150.005 179.468 -1176.14 -0.688341 0.0647386 0.722493 114 93 80
170.88 175.959 -1171.61 0.21443 -0.329019 0.300241 130 106 96
430.277 163.457 -1087.46 -0.927236 -0.229091 0.296227 78 91 86
618.066 140.876 -974.126 -0.803102 -0.244205 0.519851 68 85 83
333.57 174.305 -1155.85 -0.121976 0.0134909 0.992442 148 121 115
225.062 -79.6005 -1152.63 -0.0898141 0.407224 0.325964 173 161 161
176.71 166.575 -1142.74 0.30056 0.310347 0.184304 131 113 102
168.111 174.066 -1171.26 0.75954 -0.612012 -0.220319 123 109 94
289.493 171.048 -1157.22 -0.58656 0.0367605 0.805022 140 113 102
330.405 171.108 -1156.2 0.12995 0.0233782 0.928318 154 124 118
498.02 165.768 -1123.99 -0.00084737 0.497328 0.370646 17 16 11
642.335 128.318 -940.674 -0.966062 -0.13706 0.160849 54 69 68
306.179 168.344 -1159.69 0.229674 -0.0411392 0.518436 151 126 119
772.724 166.378 -1135.7 -0.0928757 0.0302082 0.976147 108 87 68
807.44 169.665 -1146.19 0.0536031 0.169068 0.905876 117 104 83
496.331 157.412 -1108.42 0.988529 0.0846357 0.0748196 40 24 28
749.103 165.173 -1126.3 0.844371 -0.326259 0.424962 124 136 126
811.783 168.244 -1146.49 0.0226656 -0.0990369 0.89983 119 107 90
198.055 115.193 -1167.72 0.530716 -0.655352 0.490936 146 126 118
174.81 161.037 -1135.74 -0.199733 -0.788106 0.582233 122 107 95
168.244 160.462 -1144.84 -0.385225 -0.824004 0.415475 122 107 97
570.317 151.056 -1079.38 -0.601597 0.739359 0.269645 20 26 25
180.164 160.16 -1168.45 -0.40623 -0.31603 0.614205 136 118 108
552.206 148.966 -1097.97 -0.58307 0.0243581 0.552495 20 23 21
628.362 132.87 -974.512 -0.508316 -0.814007 0.281083 82 102 99
191.788 -81.7661 -1176.16 0.675921 -0.717403 0.168713 166 145 154
784.472 163.01 -1146.26 0.36425 -0.069445 0.928708 113 93 71
520.642 152.363 -1117.49 -0.609872 0.41828 0.673124 0 8 5
557.218 143.837 -1079.18 -0.603169 0.750593 0.259252 30 35 30
294.262 146.683 -1153.01 -0.0260256 0.338318 0.830433 152 127 121
608.308 133.155 -1012.12 0.158532 -0.980569 0.115547 85 102 103
643.802 118.161 -941.254 -0.98946 -0.0461841 0.053281 58 69 68
771.746 147.646 -1133.47 0.0380714 -0.0999234 0.552118 106 86 70
171.187 144.543 -1145.13 -0.173391 0.23008 0.630795 125 107 91
468.354 131.6 -1035.73 -0.652859 -0.0795586 0.752465 90 101 100
539.817 143.168 -1106.19 -0.525159 -0.143889 0.838752 8 8 8
640.932 117.442 -960.495 -0.939183 -0.265367 0.197773 62 76 76
651.153 115.916 -910.389 0.699962 -0.615998 0.361384 139 148 139
198.272 144.087 -1155.44 -0.365471 0.0190857 0.897564 145 123 117
496.39 139.83 -1112.13 0.996043 -0.0654808 0.0565891 14 9 6
638.648 121.44 -964.9 -0.921581 -0.321508 0.213096 65 73 75
112.817 141.144 -1152.74 0.0173122 -0.83982 0.171231 127 106 93
172.476 138.626 -1150.2 0.193745 -0.227396 0.184261 134 116 105
512.202 135.602 -1117.66 -0.323375 -0.273692 0.774213 12 14 8
646.031 109.866 -904.293 -0.223353 -0.396243 0.683865 181 185 180
240.815 142.686 -1166.3 -0.747978 -0.0410912 0.66245 144 128 121
770.266 141.626 -1135.53 0.154467 -0.63888 0.753639 109 91 71
164.201 -30.5785 -1129.92 0.449769 0.124098 -0.182817 170 135 118
489.056 119.824 -1015.18 -0.777868 -0.115834 0.616976 93 102 100
498.749 130.301 -1088.26 0.948591 -0.0171758 -0.0250701 25 20 13
217.266 134.57 -1155.1 -0.4788 -0.590131 0.649998 143 129 121
548.476 127.527 -1075.66 -0.733187 -0.0560484 0.659344 56 64 62
729.601 132.372 -1093.8 0.811344 -0.46649 0.352288 145 154 145
783.688 137.276 -1135.69 -0.341821 0.0171575 0.497217 118 102 86
496.449 128.679 -1114.25 0.899168 -0.273773 0.0556291 37 31 25
511.249 128.311 -1118.1 -0.548266 0.124081 0.688009 13 13 7
94.1046 129.338 -1178.27 0.0631941 0.0499982 0.746563 128 120 103
411.399 -75.2764 -1137.01 -0.289529 -0.601662 0.732848 97 97 106
239.841 127.382 -1155.34 0.639749 0.193077 0.648298 148 135 124
564.065 123.63 -1078.12 -0.24011 -0.869215 0.363412 63 72 79
653.121 107.498 -918.762 0.638731 -0.713361 0.288337 143 144 138
499.343 125.179 -1126.21 -0.460402 -0.293538 0.834146 26 23 18
545.581 125.35 -1113.55 0.19263 -0.980703 -0.0334033 78 91 90
553.233 125.469 -1120 -0.133313 -0.984199 -0.0511302 80 91 91
638.732 104.485 -916.764 -0.959961 0.0960661 -0.230164 68 81 78
676.798 -68.0851 -1142.47 -0.675414 0.669834 0.123563 183 158 138
738.16 126.184 -1119.28 0.876744 -0.123933 0.463884 130 141 133
531.232 125.092 -1131.54 -0.0470617 -0.987581 -0.0224155 28 27 27
534.343 123.363 -1113.73 0.124468 -0.991993 -0.0213869 44 41 36
537.025 126.377 -1143.85 0.455339 -0.831387 0.211093 40 36 38
544.068 124.902 -1148.59 0.0174862 -0.590388 0.659354 70 60 57
557.315 124.935 -1127.01 -0.346499 -0.937208 -0.0397417 81 91 94
185.762 118.764 -1154.73 0.751862 0.148518 0.241777 139 125 119
218.984 119.7 -1155.01 0.089583 -0.154383 0.922751 152 133 128
224.673 120.098 -1152.8 -0.277315 -0.0175286 0.725664 151 133 129
255.738 120.058 -1154.24 -0.287941 -0.451719 0.694308 151 133 128
233.208 -88.4576 -1164.49 0.648598 0.701428 -0.271888 180 169 159
496.015 120.775 -1121.04 0.916111 -0.365624 -0.00983676 77 62 51
524.177 123.836 -1139.71 0.181648 -0.974066 0.00827977 53 42 38
562.435 123.685 -1147.66 -0.223438 -0.863872 0.23818 62 75 69
503.578 118.563 -1150.89 0.0193994 -0.377258 0.744786 106 74 65
639.073 102.76 -915.167 -0.884854 -0.256198 0.389096 89 97 94
738.694 122.646 -1121.09 0.873328 -0.137836 0.467225 150 150 150
554.171 117.064 -1149.64 -0.00448784 -0.0703836 0.985513 70 50 42
576.153 119.054 -1123.26 -0.340506 -0.938125 -0.0630577 86 94 95
639.042 101.435 -918.052 -0.971515 -0.0197354 -0.235985 84 84 82
790.306 121.281 -1130.58 0.599645 -0.112887 0.708495 135 122 104
131.448 111.33 -1130.04 0.400243 0.521464 -0.125174 130 120 104
644.205 98.5442 -940.531 -0.985041 -0.00673152 -0.129646 60 77 74
779.744 120.587 -1146.83 -0.845898 0.26427 0.36076 115 100 81
645.44 98.6295 -950.997 -0.978501 -0.142669 -0.105377 61 73 74
200.766 107.722 -1168.34 -0.641819 -0.0372807 0.75658 144 131 124
502.87 105.563 -1031.31 0.988897 -0.0173918 0.147582 125 105 95
593.564 113.958 -1147.37 -0.157354 -0.581119 0.687528 103 104 103
645.531 98.2825 -970.562 -0.933361 -0.322893 0.0835724 67 82 82
646.161 97.6452 -960.506 -0.976826 -0.184076 -0.00799539 66 76 78
494.637 110.541 -1138.91 0.964773 -0.236356 0.0674834 117 79 72
603.822 107.38 -1060.58 -0.424244 -0.90405 -0.0520527 89 107 103
331.937 104.576 -1135.67 0.0299215 0.0184535 0.994561 87 92 85
628.187 102.123 -1012.31 -0.543054 -0.803437 0.237115 91 107 109
147.319 103.388 -1144.99 -0.687379 -0.0542666 0.724269 145 119 106
324.451 104.133 -1135.49 -0.0118895 0.113964 0.977797 89 89 86
725.727 107.969 -1096.36 0.889923 -0.197353 0.411205 174 171 166
797.247 110.551 -1147.12 0.356751 -0.0275668 0.823378 138 117 100
147.797 99.8944 -1144.08 0.0281155 -0.160908 0.416057 151 121 114
698.186 21.5997 -1081.45 -0.544874 -0.836226 -0.06195 237 245 242
633.513 106.397 -1120.38 -0.375603 -0.923618 -0.0765069 94 106 110
625.645 102.59 -1057.33 -0.427952 -0.898425 -0.0984314 95 105 108
332.703 95.6476 -1135.51 0.0591524 0.188818 0.961669 85 90 80
632.931 102.108 -1076.12 -0.421015 -0.900487 -0.108945 95 107 109
735.618 105.021 -1120.67 0.645881 -0.489033 0.534833 176 185 177
630.817 103.956 -1146.27 -0.350445 -0.198636 0.915277 96 85 89
641.473 98.7166 -1147.23 -0.353179 -0.0155148 0.801148 102 88 84
643.549 97.7574 -1069.22 -0.440539 -0.873408 -0.119441 94 107 110
654.467 99.118 -1116.73 -0.722416 -0.673575 -0.156245 96 114 112
648.103 89.616 -970.356 -0.94333 -0.309546 -0.00761071 63 78 81
730.425 99.871 -1108.91 0.894139 -0.0946532 0.437672 139 150 150
154.875 87.8659 -1154.55 0.0603211 -0.0537169 0.81515 137 118 108
797.206 97.6411 -1146.35 0.316353 -0.162042 0.73953 146 129 112
99.5239 89.3252 -1175.99 -0.640013 0.0953954 0.76242 146 116 111
324.225 87.2499 -1133.89 0.00819649 0.0128082 0.984636 85 87 85
333.691 87.4999 -1134.65 0.170883 0.081421 0.961773 84 86 81
665.31 94.6906 -1145.78 -0.0662163 -0.674206 0.73557 94 84 84
666.63 91.7959 -1109.28 -0.720349 -0.670082 -0.179131 94 108 114
235.642 -71.9723 -1159.86 0.241256 0.307948 0.247231 180 170 167
147.351 83.0173 -1154.14 -0.0614583 0.807225 0.477278 127 114 101
496.646 85.4264 -1102.51 0.665695 0.00175338 -0.0347816 115 86 78
795.681 92.3695 -1146.31 0.244984 0.266429 0.883089 155 137 118
307.792 83.2509 -1143.6 -0.624174 0.599844 0.500595 78 77 81
342.731 77.9885 -1134.74 0.249903 -0.0137761 0.931594 80 84 84
669.595 86.2846 -1095.9 -0.694073 -0.696001 -0.18397 95 109 111
496.677 80.0604 -1103.49 0.998085 0.00588914 -0.051658 114 86 76
677.779 84.9304 -1117.93 -0.70252 -0.69556 -0.150541 92 108 116
648.739 79.4426 -962.102 -0.971121 -0.0937071 -0.189191 73 84 83
645.161 76.8181 -947.468 -0.964073 0.0181996 -0.249715 73 83 85
648.259 81.1514 -923.765 -0.522358 -0.483173 0.396086 205 210 205
650.356 76.6764 -928.396 0.0729524 -0.594241 0.519294 177 184 180
644.773 75.5112 -939.029 -0.668146 -0.446906 0.179833 173 182 174
771.384 83.8403 -1134.94 0.0944364 0.274863 0.741395 135 117 103
788.426 84.1813 -1147.06 -0.032194 -0.131157 0.85152 155 136 122
792.579 84.32 -1134.6 0.051704 0.605108 0.7195 152 137 119
672.39 77.4738 -1146.55 -0.0935841 -0.1447 0.889945 108 87 82
680.236 81.439 -1146.08 -0.488504 0.0550461 0.870823 86 63 62
681.003 81.3622 -1117.19 -0.706911 -0.69048 -0.153345 85 115 109
649.816 79.7225 -924.969 0.0500064 -0.718179 0.681931 128 132 128
720.403 81.947 -1095.56 0.89077 -0.13583 0.43368 135 154 144
736.846 80.947 -1127.22 0.681746 0.417763 0.574045 106 116 108
747.629 80.6609 -1137.68 0.613875 0.397674 0.664752 26 37 27
769.698 82.886 -1135.38 -0.936327 -0.269479 -0.225107 129 117 97
788.895 83.1983 -1133.67 -0.949246 0.289156 0.123783 152 139 117
123.727 68.5765 -1169.64 -0.243319 0.251901 0.423286 145 126 122
789.044 81.3569 -1134.23 -0.89408 -0.406935 -0.187149 156 140 119
374.796 -51.8595 -1131.94 -0.388029 -0.489176 0.763392 80 88 88
794.753 80.1419 -1132.74 -0.115545 -0.126484 0.673752 157 138 120
351.354 68.0966 -1143.38 0.738729 -0.0396895 0.658508 81 73 71
363.34 68.1814 -1152.84 0.220663 -0.130065 0.823269 35 41 41
495.105 74.5809 -1121.57 0.947484 -0.319497 -0.0139844 118 84 72
172.205 62.7909 -1153.73 -0.232932 -0.77868 0.582581 135 126 121
740.996 73.2969 -1125.38 0.66492 0.283056 0.691202 35 31 22
249.338 62.1842 -1150.76 0.301272 -0.595039 0.745093 164 148 143
676.491 69.8086 -1072.14 -0.779636 -0.587173 -0.217707 144 129 119
646.618 70.4362 -941.321 -0.55662 -0.587077 0.437323 220 226 218
685.523 70.6704 -1014.9 0 0 0 128 136 138
687.927 67.409 -1107.49 -0.722375 -0.668834 -0.175597 162 138 124
646.602 65.8164 -948.597 -0.700027 -0.369422 0.22085 165 170 165
804.101 68.4083 -1147.43 0.182046 -0.0687405 0.940622 159 141 121
162.852 53.8781 -1140.7 0.59663 0.625697 -0.173977 135 128 121
659.463 66.4401 -1004.04 -0.928045 -0.269765 -0.209446 94 101 101
134.543 50.5612 -1135.77 -0.10067 -0.937745 0.332414 142 131 126
707.959 17.0984 -1103.59 -0.629498 -0.771764 -0.0900741 229 229 229
695.037 57.6483 -1114.48 -0.70892 -0.68732 -0.157925 151 137 125
712.737 61.9613 -1083.71 0.772054 -0.479025 0.417694 122 120 129
689.292 59.2235 -1097.25 -0.844969 -0.483714 -0.22814 156 139 121
492.627 50.88 -1133.24 0.991718 -0.1253 0.0272579 118 86 77
661.216 64.1281 -958.45 0.588577 -0.745737 0.312175 116 118 124
673.698 60.8168 -990.202 0.900475 -0.171654 0.38695 123 121 122
272.689 40.5576 -1152.09 0.227134 -0.0559628 0.409003 173 168 165
653.101 58.3305 -951.083 -0.455411 -0.722596 0.442998 240 248 239
653.362 61.7843 -943.737 -0.393883 -0.613374 0.280122 233 244 234
736.153 51.9329 -1107.16 0.336798 0.518847 0.764574 36 48 35
497.496 48.869 -1067.09 0.915025 -0.40334 -0.00678695 119 103 100
648.46 57.8588 -958.182 -0.863312 -0.343003 -0.0277049 160 162 155
495.434 45.7354 -1088.06 0.970042 -0.239308 -0.0418303 118 100 89
139.956 32.3497 -1145.21 -0.262112 -0.816552 0.514334 154 131 126
176.483 -79.7417 -1158.86 -0.191928 -0.132523 0.424129 170 135 118
