ply
format ascii 1.0
comment pointcloud saved from Realsense Viewer
element vertex 2433
property float32 x
property float32 y
property float32 z
property uchar red
property uchar green
property uchar blue
end_header
22 30 15 
0.201053 0.0455654 -0.547 
20 33 20 
0.204471 0.0454821 -0.546 
20 33 18 
0.207494 0.0453155 -0.544 
19 33 13 
0.210877 0.0452322 -0.543 
18 31 14 
0.214642 0.0452322 -0.543 
24 34 20 
0.218809 0.0453155 -0.544 
22 35 22 
0.22258 0.0453155 -0.544 
26 34 19 
0.226352 0.0453155 -0.544 
40 50 36 
0.230123 0.0453155 -0.544 
42 50 37 
0.234325 0.0453988 -0.545 
39 52 39 
0.238103 0.0453988 -0.545 
43 51 40 
0.242769 0.0455654 -0.547 
80 82 64 
0.249266 0.0460652 -0.553 
68 71 48 
0.255389 0.0464817 -0.558 
92 102 90 
0.261116 0.0468149 -0.562 
114 153 142 
0.265484 0.0468982 -0.563 
112 158 149 
0.269387 0.0468982 -0.563 
119 160 153 
0.273776 0.0469815 -0.564 
123 160 151 
0.277194 0.0468982 -0.563 
112 169 165 
0.281097 0.0468982 -0.563 
116 167 168 
0.284494 0.0468149 -0.562 
121 167 169 
0.28839 0.0468149 -0.562 
118 160 161 
0.291767 0.0467316 -0.561 
121 164 158 
0.295656 0.0467316 -0.561 
116 162 155 
0.299545 0.0467316 -0.561 
115 163 155 
0.303976 0.0468149 -0.562 
122 165 161 
0.307872 0.0468149 -0.562 
122 165 161 
0.312323 0.0468982 -0.563 
132 170 168 
0.316227 0.0468982 -0.563 
125 173 167 
0.32013 0.0468982 -0.563 
125 161 157 
0.324033 0.0468982 -0.563 
130 171 166 
0.327936 0.0468982 -0.563 
124 167 161 
0.332429 0.0469815 -0.564 
127 168 165 
0.336936 0.0470648 -0.565 
121 162 166 
0.341456 0.0471481 -0.566 
120 166 168 
0.34477 0.0470648 -0.565 
117 168 161 
0.34807 0.0469815 -0.564 
117 167 163 
0.351356 0.0468982 -0.563 
121 168 165 
0.355259 0.0468982 -0.563 
118 168 164 
0.359801 0.0469815 -0.564 
123 168 168 
0.364356 0.0470648 -0.565 
120 170 168 
0.368925 0.0471481 -0.566 
121 175 170 
0.371531 0.0469815 -0.564 
121 175 170 
0.375442 0.0469815 -0.564 
121 175 170 
0.379352 0.0469815 -0.564 
121 175 170 
0.383942 0.0470648 -0.565 
121 175 170 
0.387859 0.0470648 -0.565 
121 175 170 
0.391082 0.0469815 -0.564 
121 175 170 
0.394993 0.0469815 -0.564 
121 175 170 
0.398196 0.0468982 -0.563 
121 175 170 
0.402099 0.0468982 -0.563 
121 175 170 
0.406723 0.0469815 -0.564 
121 175 170 
0.410634 0.0469815 -0.564 
121 175 170 
0.414544 0.0469815 -0.564 
121 175 170 
0.419196 0.0470648 -0.565 
121 175 170 
0.423862 0.0471481 -0.566 
121 175 170 
0.427786 0.0471481 -0.566 
121 175 170 
0.430947 0.0470648 -0.565 
121 175 170 
0.434095 0.0469815 -0.564 
121 175 170 
0.438005 0.0469815 -0.564 
121 175 170 
0.441915 0.0469815 -0.564 
121 175 170 
0.445826 0.0469815 -0.564 
121 175 170 
0.449736 0.0469815 -0.564 
121 175 170 
0.453646 0.0469815 -0.564 
121 175 170 
0.457556 0.0469815 -0.564 
121 175 170 
0.461467 0.0469815 -0.564 
121 175 170 
0.465377 0.0469815 -0.564 
121 175 170 
0.469287 0.0469815 -0.564 
121 175 170 
0.472358 0.0468982 -0.563 
113 165 161 
0.476261 0.0468982 -0.563 
113 165 161 
0.480165 0.0468982 -0.563 
113 165 161 
0.484068 0.0468982 -0.563 
113 165 161 
0.488838 0.0469815 -0.564 
113 165 161 
0.492748 0.0469815 -0.564 
113 165 161 
0.496659 0.0469815 -0.564 
113 165 161 
0.500569 0.0469815 -0.564 
113 165 161 
0.504479 0.0469815 -0.564 
113 165 161 
0.507488 0.0468982 -0.563 
113 165 161 
0.511391 0.0468982 -0.563 
113 165 161 
0.515294 0.0468982 -0.563 
113 165 161 
0.52012 0.0469815 -0.564 
113 165 161 
0.52403 0.0469815 -0.564 
113 165 161 
0.52794 0.0469815 -0.564 
113 165 161 
0.532794 0.0470648 -0.565 
113 165 161 
0.536711 0.0470648 -0.565 
113 165 161 
0.540628 0.0470648 -0.565 
113 165 161 
0.544545 0.0470648 -0.565 
113 165 161 
0.548462 0.0470648 -0.565 
113 165 161 
0.552379 0.0470648 -0.565 
113 165 161 
-0.41165 0.0436058 -0.571 
94 136 137 
-0.406977 0.0435295 -0.57 
95 132 133 
-0.402318 0.0434531 -0.569 
97 142 140 
-0.398373 0.0434531 -0.569 
96 130 127 
-0.394428 0.0434531 -0.569 
90 126 122 
-0.39117 0.0435295 -0.57 
69 119 117 
-0.387218 0.0435295 -0.57 
87 121 116 
-0.383266 0.0435295 -0.57 
83 125 124 
-0.379314 0.0435295 -0.57 
87 116 113 
-0.374704 0.0434531 -0.569 
85 119 118 
-0.369456 0.0433004 -0.567 
83 123 123 
-0.365525 0.0433004 -0.567 
82 122 122 
-0.362232 0.0433767 -0.568 
91 127 125 
-0.358294 0.0433767 -0.568 
76 118 117 
-0.35498 0.0434531 -0.569 
71 119 111 
-0.351652 0.0435295 -0.57 
81 112 112 
-0.3477 0.0435295 -0.57 
74 108 105 
-0.343748 0.0435295 -0.57 
70 106 100 
-0.339796 0.0435295 -0.57 
80 114 109 
-0.335255 0.0434531 -0.569 
68 116 106 
-0.330728 0.0433767 -0.568 
74 115 108 
-0.32679 0.0433767 -0.568 
78 115 106 
-0.322852 0.0433767 -0.568 
80 115 107 
-0.318914 0.0433767 -0.568 
68 109 104 
-0.315531 0.0434531 -0.569 
74 115 110 
-0.311586 0.0434531 -0.569 
80 117 108 
-0.307641 0.0434531 -0.569 
72 111 100 
-0.303162 0.0433767 -0.568 
72 115 107 
-0.299224 0.0433767 -0.568 
67 113 104 
-0.295286 0.0433767 -0.568 
70 111 106 
-0.291348 0.0433767 -0.568 
72 110 104 
-0.287916 0.0434531 -0.569 
70 105 95 
-0.283972 0.0434531 -0.569 
80 107 100 
-0.279535 0.0433767 -0.568 
83 110 103 
-0.275597 0.0433767 -0.568 
81 113 104 
-0.271659 0.0433767 -0.568 
80 112 103 
-0.267249 0.0433004 -0.567 
76 117 110 
-0.263318 0.0433004 -0.567 
81 112 108 
-0.260302 0.0434531 -0.569 
86 118 111 
-0.256808 0.0435295 -0.57 
76 108 99 
-0.253743 0.0436822 -0.572 
96 128 119 
-0.248904 0.0435295 -0.57 
100 133 116 
-0.244523 0.0434531 -0.569 
101 129 116 
-0.240155 0.0433767 -0.568 
100 127 118 
-0.236217 0.0433767 -0.568 
92 120 107 
-0.232279 0.0433767 -0.568 
79 122 114 
-0.228341 0.0433767 -0.568 
79 122 114 
-0.224403 0.0433767 -0.568 
84 130 123 
-0.220853 0.0434531 -0.569 
84 130 125 
-0.21729 0.0435295 -0.57 
82 130 124 
-0.213712 0.0436058 -0.571 
83 124 121 
-0.209386 0.0435295 -0.57 
85 123 121 
-0.205074 0.0434531 -0.569 
81 122 117 
-0.201129 0.0434531 -0.569 
80 121 114 
-0.197531 0.0435295 -0.57 
84 121 110 
-0.193579 0.0435295 -0.57 
86 123 112 
-0.189627 0.0435295 -0.57 
87 122 112 
-0.185349 0.0434531 -0.569 
84 121 112 
-0.181086 0.0433767 -0.568 
85 122 111 
-0.177148 0.0433767 -0.568 
84 121 112 
-0.17321 0.0433767 -0.568 
75 118 112 
-0.169272 0.0433767 -0.568 
83 119 113 
-0.165043 0.0433004 -0.567 
82 120 114 
-0.161112 0.0433004 -0.567 
77 115 109 
-0.157181 0.0433004 -0.567 
78 116 110 
-0.15325 0.0433004 -0.567 
81 117 111 
-0.149319 0.0433004 -0.567 
81 122 115 
-0.145388 0.0433004 -0.567 
75 116 109 
-0.141706 0.0433767 -0.568 
81 120 111 
-0.137768 0.0433767 -0.568 
80 121 114 
-0.13383 0.0433767 -0.568 
76 117 110 
-0.129892 0.0433767 -0.568 
79 123 112 
-0.126176 0.0434531 -0.569 
74 118 107 
-0.122446 0.0435295 -0.57 
74 118 107 
-0.118286 0.0434531 -0.569 
74 118 105 
-0.11414 0.0433767 -0.568 
76 118 106 
-0.110202 0.0433767 -0.568 
76 118 108 
-0.106452 0.0434531 -0.569 
76 119 111 
-0.102687 0.0435295 -0.57 
74 120 111 
-0.0985618 0.0434531 -0.569 
72 115 107 
-0.0946169 0.0434531 -0.569 
74 118 107 
-0.0905126 0.0433767 -0.568 
73 120 108 
-0.0864222 0.0433004 -0.567 
70 121 112 
-0.0826367 0.0433767 -0.568 
69 120 111 
-0.0786988 0.0433767 -0.568 
70 116 107 
-0.0747608 0.0433767 -0.568 
76 119 111 
-0.0706982 0.0433004 -0.567 
79 122 114 
-0.0667671 0.0433004 -0.567 
76 124 114 
-0.0628361 0.0433004 -0.567 
79 125 116 
-0.0588012 0.043224 -0.566 
74 120 111 
-0.0548771 0.043224 -0.566 
78 126 118 
-0.051043 0.0433004 -0.567 
70 118 110 
-0.0471951 0.0433767 -0.568 
78 121 113 
-0.0433333 0.0434531 -0.569 
73 119 110 
-0.0393884 0.0434531 -0.569 
75 123 113 
-0.0354435 0.0434531 -0.569 
71 117 108 
-0.0314433 0.0433767 -0.568 
82 126 115 
-0.0275053 0.0433767 -0.568 
87 130 122 
-0.0235259 0.0433004 -0.567 
86 129 121 
-0.0195603 0.043224 -0.566 
86 132 123 
-0.0156362 0.043224 -0.566 
89 133 122 
-0.0117328 0.0433004 -0.567 
87 130 122 
-0.00780177 0.0433004 -0.567 
87 130 124 
-0.00387074 0.0433004 -0.567 
88 131 123 
6.01763e-05 0.043224 -0.566 
88 131 123 
0.00399131 0.0433004 -0.567 
86 132 123 
0.00792233 0.0433004 -0.567 
85 131 122 
0.0118534 0.0433004 -0.567 
83 127 116 
0.0157844 0.0433004 -0.567 
83 124 117 
0.0197154 0.0433004 -0.567 
87 129 119 
0.023563 0.0431476 -0.565 
87 130 122 
0.0274315 0.0430713 -0.564 
87 131 120 
0.0313418 0.0430713 -0.564 
87 131 120 
0.0351895 0.0429949 -0.563 
96 140 127 
0.0389539 0.0428422 -0.561 
78 117 104 
0.042767 0.0427658 -0.56 
37 51 40 
0.0465662 0.0426894 -0.559 
52 58 39 
0.0504417 0.0426894 -0.559 
36 47 28 
0.0542201 0.0426131 -0.558 
18 28 14 
0.0580887 0.0426131 -0.558 
16 29 12 
0.0619574 0.0426131 -0.558 
13 26 11 
0.065826 0.0426131 -0.558 
20 28 15 
0.0696946 0.0426131 -0.558 
21 29 16 
0.0735632 0.0426131 -0.558 
19 29 15 
0.0774319 0.0426131 -0.558 
19 29 15 
0.0813005 0.0426131 -0.558 
20 30 16 
0.0850165 0.0425367 -0.557 
22 32 16 
0.0887186 0.0424603 -0.556 
22 33 14 
0.0922404 0.0423076 -0.554 
16 29 14 
0.0960813 0.0423076 -0.554 
18 31 14 
0.0999222 0.0423076 -0.554 
19 27 12 
0.104138 0.0424603 -0.556 
22 31 13 
0.107992 0.0424603 -0.556 
57 59 46 
0.111646 0.042384 -0.555 
48 52 29 
0.115286 0.0423076 -0.554 
57 68 36 
0.118912 0.0422312 -0.553 
26 29 13 
0.122746 0.0422312 -0.553 
25 30 20 
0.12658 0.0422312 -0.553 
23 31 18 
0.130178 0.0421549 -0.552 
25 33 18 
0.133519 0.0420021 -0.55 
25 30 16 
0.137083 0.0419258 -0.549 
24 30 13 
0.140376 0.041773 -0.547 
25 33 18 
0.143904 0.0416967 -0.546 
21 29 14 
0.14769 0.0416967 -0.546 
23 31 16 
0.151475 0.0416967 -0.546 
22 32 18 
0.155261 0.0416967 -0.546 
23 31 16 
0.159046 0.0416967 -0.546 
20 28 13 
0.162832 0.0416967 -0.546 
27 32 20 
0.166617 0.0416967 -0.546 
41 44 26 
0.170402 0.0416967 -0.546 
69 69 45 
0.173869 0.0416203 -0.545 
84 89 61 
0.177647 0.0416203 -0.545 
26 33 25 
0.181426 0.0416203 -0.545 
21 29 18 
0.185544 0.0416967 -0.546 
22 30 17 
0.189676 0.041773 -0.547 
28 36 21 
0.193469 0.041773 -0.547 
27 36 18 
0.197261 0.041773 -0.547 
28 34 17 
0.201053 0.041773 -0.547 
23 32 14 
0.204471 0.0416967 -0.546 
26 35 17 
0.207875 0.0416203 -0.545 
18 31 18 
0.211265 0.0415439 -0.544 
20 33 20 
0.215432 0.0416203 -0.545 
22 32 18 
0.219613 0.0416967 -0.546 
23 36 21 
0.223398 0.0416967 -0.546 
25 30 18 
0.227184 0.0416967 -0.546 
37 42 30 
0.230546 0.0416203 -0.545 
39 44 34 
0.234325 0.0416203 -0.545 
46 51 39 
0.238103 0.0416203 -0.545 
45 55 41 
0.242769 0.041773 -0.547 
72 74 58 
0.248816 0.0421549 -0.552 
58 56 37 
0.254931 0.0425367 -0.557 
114 129 124 
0.260651 0.0428422 -0.561 
129 164 154 
0.264541 0.0428422 -0.561 
117 157 157 
0.268909 0.0429185 -0.562 
120 158 154 
0.272805 0.0429185 -0.562 
116 159 155 
0.277194 0.0429949 -0.563 
118 167 168 
0.280598 0.0429185 -0.562 
123 168 168 
0.284494 0.0429185 -0.562 
115 160 160 
0.287877 0.0428422 -0.561 
122 163 167 
0.291246 0.0427658 -0.56 
123 164 159 
0.295129 0.0427658 -0.56 
129 170 163 
0.299011 0.0427658 -0.56 
122 170 164 
0.302894 0.0427658 -0.56 
125 174 177 
0.307324 0.0428422 -0.561 
120 169 174 
0.311214 0.0428422 -0.561 
117 163 167 
0.315665 0.0429185 -0.562 
120 170 168 
0.319561 0.0429185 -0.562 
120 165 165 
0.324033 0.0429949 -0.563 
128 174 169 
0.328519 0.0430713 -0.564 
121 168 165 
0.332429 0.0430713 -0.564 
116 168 164 
0.337532 0.043224 -0.566 
118 172 167 
0.342059 0.0433004 -0.567 
113 167 164 
0.34538 0.043224 -0.566 
115 169 166 
0.34807 0.0430713 -0.564 
120 164 167 
0.351356 0.0429949 -0.563 
118 165 164 
0.355259 0.0429949 -0.563 
119 164 162 
0.359801 0.0430713 -0.564 
113 171 162 
0.364356 0.0431476 -0.565 
123 164 161 
0.368273 0.0431476 -0.565 
121 164 160 
0.37219 0.0431476 -0.565 
121 164 160 
0.375442 0.0430713 -0.564 
121 164 160 
0.379352 0.0430713 -0.564 
121 164 160 
0.383942 0.0431476 -0.565 
121 164 160 
0.387859 0.0431476 -0.565 
121 164 160 
0.391776 0.0431476 -0.565 
121 164 160 
0.395693 0.0431476 -0.565 
121 164 160 
0.39961 0.0431476 -0.565 
121 164 160 
0.403527 0.0431476 -0.565 
121 164 160 
0.406723 0.0430713 -0.564 
121 164 160 
0.410634 0.0430713 -0.564 
121 164 160 
0.414544 0.0430713 -0.564 
121 164 160 
0.417712 0.0429949 -0.563 
121 164 160 
0.422364 0.0430713 -0.564 
121 164 160 
0.426274 0.0430713 -0.564 
121 164 160 
0.430185 0.0430713 -0.564 
127 165 161 
0.434095 0.0430713 -0.564 
127 165 161 
0.437229 0.0429949 -0.563 
127 165 161 
0.440348 0.0429185 -0.562 
127 165 161 
0.444245 0.0429185 -0.562 
127 165 161 
0.448938 0.0429949 -0.563 
127 165 161 
0.452842 0.0429949 -0.563 
127 165 161 
0.456745 0.0429949 -0.563 
127 165 161 
0.460648 0.0429949 -0.563 
127 165 161 
0.464552 0.0429949 -0.563 
127 165 161 
0.468455 0.0429949 -0.563 
127 165 161 
0.472358 0.0429949 -0.563 
127 165 161 
0.476261 0.0429949 -0.563 
127 165 161 
0.480165 0.0429949 -0.563 
127 165 161 
0.484068 0.0429949 -0.563 
127 165 161 
0.487971 0.0429949 -0.563 
127 165 161 
0.492748 0.0430713 -0.564 
127 165 161 
0.496659 0.0430713 -0.564 
127 165 161 
0.500569 0.0430713 -0.564 
127 165 161 
0.503585 0.0429949 -0.563 
127 165 161 
0.507488 0.0429949 -0.563 
127 165 161 
0.511391 0.0429949 -0.563 
127 165 161 
0.515294 0.0429949 -0.563 
127 165 161 
0.52012 0.0430713 -0.564 
127 165 161 
0.52403 0.0430713 -0.564 
127 165 161 
0.52794 0.0430713 -0.564 
127 165 161 
0.531851 0.0430713 -0.564 
127 165 161 
0.534811 0.0429949 -0.563 
127 165 161 
0.538714 0.0429949 -0.563 
127 165 161 
0.542617 0.0429949 -0.563 
127 165 161 
0.546521 0.0429949 -0.563 
127 165 161 
0.550424 0.0429949 -0.563 
127 165 161 
-0.410929 0.0395777 -0.57 
90 133 129 
-0.406977 0.0395777 -0.57 
87 133 126 
-0.402318 0.0395082 -0.569 
96 134 130 
-0.398373 0.0395082 -0.569 
98 134 130 
-0.394428 0.0395082 -0.569 
87 132 130 
-0.390484 0.0395082 -0.569 
93 129 125 
-0.386539 0.0395082 -0.569 
91 125 122 
-0.382594 0.0395082 -0.569 
80 116 112 
-0.379314 0.0395777 -0.57 
89 120 116 
-0.374704 0.0395082 -0.569 
80 121 116 
-0.370759 0.0395082 -0.569 
87 128 121 
-0.36617 0.0394388 -0.568 
85 123 119 
-0.362232 0.0394388 -0.568 
81 126 124 
-0.358294 0.0394388 -0.568 
73 114 109 
-0.35498 0.0395082 -0.569 
71 117 108 
-0.351652 0.0395777 -0.57 
69 117 109 
-0.3477 0.0395777 -0.57 
78 116 112 
-0.343748 0.0395777 -0.57 
77 118 115 
-0.339796 0.0395777 -0.57 
79 120 117 
-0.335844 0.0395777 -0.57 
71 114 108 
-0.33131 0.0395082 -0.569 
79 116 107 
-0.32679 0.0394388 -0.568 
81 117 115 
-0.322852 0.0394388 -0.568 
81 117 115 
-0.318914 0.0394388 -0.568 
80 114 109 
-0.314976 0.0394388 -0.568 
76 114 108 
-0.311038 0.0394388 -0.568 
79 113 108 
-0.307641 0.0395082 -0.569 
72 110 104 
-0.303696 0.0395082 -0.569 
65 118 120 
-0.299751 0.0395082 -0.569 
66 117 118 
-0.295806 0.0395082 -0.569 
73 116 112 
-0.291348 0.0394388 -0.568 
73 114 111 
-0.28741 0.0394388 -0.568 
75 113 109 
-0.282973 0.0393694 -0.567 
80 114 111 
-0.279042 0.0393694 -0.567 
70 107 98 
-0.274626 0.0392999 -0.566 
63 109 100 
-0.270702 0.0392999 -0.566 
74 112 106 
-0.266778 0.0392999 -0.566 
78 116 110 
-0.263318 0.0393694 -0.567 
77 115 109 
-0.260302 0.0395082 -0.569 
75 114 105 
-0.256808 0.0395777 -0.57 
86 121 109 
-0.2533 0.0396471 -0.571 
94 129 117 
-0.248904 0.0395777 -0.57 
100 133 118 
-0.244523 0.0395082 -0.569 
100 136 118 
-0.240155 0.0394388 -0.568 
97 135 116 
-0.236217 0.0394388 -0.568 
87 123 105 
-0.232279 0.0394388 -0.568 
82 114 105 
-0.228341 0.0394388 -0.568 
86 123 112 
-0.224403 0.0394388 -0.568 
86 123 114 
-0.221242 0.0395777 -0.57 
83 124 117 
-0.21729 0.0395777 -0.57 
85 132 129 
-0.213338 0.0395777 -0.57 
83 124 119 
-0.209019 0.0395082 -0.569 
81 123 113 
-0.205074 0.0395082 -0.569 
82 125 117 
-0.201129 0.0395082 -0.569 
80 123 115 
-0.197531 0.0395777 -0.57 
89 124 116 
-0.193579 0.0395777 -0.57 
88 123 113 
-0.189627 0.0395777 -0.57 
85 123 117 
-0.185349 0.0395082 -0.569 
82 116 111 
-0.181404 0.0395082 -0.569 
88 120 111 
-0.177148 0.0394388 -0.568 
80 115 105 
-0.17321 0.0394388 -0.568 
81 119 113 
-0.168974 0.0393694 -0.567 
76 119 115 
-0.164752 0.0392999 -0.566 
78 124 119 
-0.160828 0.0392999 -0.566 
74 117 111 
-0.156903 0.0392999 -0.566 
77 118 111 
-0.152979 0.0392999 -0.566 
79 120 113 
-0.149319 0.0393694 -0.567 
81 122 115 
-0.145644 0.0394388 -0.568 
77 119 109 
-0.141956 0.0395082 -0.569 
78 117 106 
-0.138011 0.0395082 -0.569 
79 118 107 
-0.134066 0.0395082 -0.569 
82 121 110 
-0.129892 0.0394388 -0.568 
77 119 107 
-0.125954 0.0394388 -0.568 
73 116 110 
-0.122016 0.0394388 -0.568 
72 120 112 
-0.118078 0.0394388 -0.568 
71 119 109 
-0.11414 0.0394388 -0.568 
76 115 106 
-0.110202 0.0394388 -0.568 
79 118 107 
-0.106452 0.0395082 -0.569 
72 116 103 
-0.102507 0.0395082 -0.569 
76 118 106 
-0.0985618 0.0395082 -0.569 
75 117 105 
-0.0946169 0.0395082 -0.569 
72 114 104 
-0.0905126 0.0394388 -0.568 
73 116 108 
-0.0865747 0.0394388 -0.568 
71 117 110 
-0.0826367 0.0394388 -0.568 
72 120 112 
-0.0786988 0.0394388 -0.568 
73 121 111 
-0.0747608 0.0394388 -0.568 
79 125 116 
-0.0706982 0.0393694 -0.567 
77 118 111 
-0.0667671 0.0393694 -0.567 
80 123 117 
-0.0628361 0.0393694 -0.567 
80 123 115 
-0.0588012 0.0392999 -0.566 
82 125 117 
-0.0548771 0.0392999 -0.566 
75 118 110 
-0.0511331 0.0394388 -0.568 
75 116 109 
-0.0471951 0.0394388 -0.568 
71 117 108 
-0.0433333 0.0395082 -0.569 
68 119 108 
-0.0393884 0.0395082 -0.569 
70 121 110 
-0.0354435 0.0395082 -0.569 
73 126 119 
-0.0313879 0.0393694 -0.567 
80 128 122 
-0.0274569 0.0393694 -0.567 
87 134 122 
-0.0234844 0.0392999 -0.566 
87 131 120 
-0.0195603 0.0392999 -0.566 
83 125 115 
-0.0156638 0.0393694 -0.567 
85 136 127 
-0.0117328 0.0393694 -0.567 
82 130 120 
-0.00778801 0.0392999 -0.566 
80 128 118 
-0.00386391 0.0392999 -0.566 
83 131 121 
6.01763e-05 0.0392999 -0.566 
84 132 122 
0.00399131 0.0393694 -0.567 
89 132 124 
0.0079363 0.0394388 -0.568 
88 131 125 
0.0118743 0.0394388 -0.568 
83 125 113 
0.0158122 0.0394388 -0.568 
79 127 117 
0.0197154 0.0393694 -0.567 
81 128 116 
0.023563 0.0392305 -0.565 
85 129 118 
0.0274315 0.0391611 -0.564 
93 130 119 
0.0313418 0.0391611 -0.564 
90 129 118 
0.0351895 0.0390916 -0.563 
93 130 119 
0.0390928 0.0390916 -0.563 
81 118 105 
0.0428433 0.0389527 -0.561 
30 42 32 
0.0466495 0.0388833 -0.56 
55 54 37 
0.0503515 0.0387444 -0.558 
27 37 12 
0.0542201 0.0387444 -0.558 
18 27 9 
0.0579846 0.038675 -0.557 
18 27 9 
0.0618463 0.038675 -0.557 
18 28 16 
0.065708 0.038675 -0.557 
19 29 13 
0.0695697 0.038675 -0.557 
24 26 13 
0.0732996 0.0386056 -0.556 
22 27 13 
0.0770156 0.0385361 -0.555 
19 27 12 
0.0808634 0.0385361 -0.555 
20 25 11 
0.0847112 0.0385361 -0.555 
20 30 16 
0.088559 0.0385361 -0.555 
20 28 13 
0.0922404 0.0384667 -0.554 
17 27 13 
0.0960813 0.0384667 -0.554 
19 29 13 
0.0999222 0.0384667 -0.554 
20 30 16 
0.103763 0.0384667 -0.554 
19 27 14 
0.107798 0.0385361 -0.555 
21 31 15 
0.111445 0.0384667 -0.554 
30 39 19 
0.115286 0.0384667 -0.554 
55 65 40 
0.118912 0.0383973 -0.553 
54 55 28 
0.122968 0.0384667 -0.554 
23 29 12 
0.12658 0.0383973 -0.553 
21 29 14 
0.130178 0.0383278 -0.552 
25 31 14 
0.133519 0.038189 -0.55 
24 29 15 
0.136833 0.0380501 -0.548 
25 30 16 
0.140119 0.0379112 -0.546 
24 30 13 
0.143641 0.0378418 -0.545 
27 30 12 
0.147419 0.0378418 -0.545 
25 31 14 
0.151198 0.0378418 -0.545 
25 30 16 
0.154976 0.0378418 -0.545 
26 28 15 
0.158464 0.0377724 -0.544 
19 27 12 
0.162533 0.0378418 -0.545 
28 37 19 
0.166312 0.0378418 -0.545 
72 79 55 
0.169778 0.0377724 -0.544 
91 92 63 
0.17355 0.0377724 -0.544 
37 35 16 
0.177321 0.0377724 -0.544 
30 32 14 
0.181426 0.0378418 -0.545 
25 31 14 
0.185204 0.0378418 -0.545 
25 30 16 
0.18933 0.0379112 -0.546 
29 34 20 
0.193115 0.0379112 -0.546 
31 34 18 
0.1969 0.0379112 -0.546 
28 36 25 
0.200686 0.0379112 -0.546 
20 33 18 
0.204471 0.0379112 -0.546 
20 30 16 
0.208257 0.0379112 -0.546 
33 35 22 
0.211654 0.0378418 -0.545 
26 34 19 
0.215828 0.0379112 -0.546 
27 36 18 
0.220015 0.0379807 -0.547 
22 33 12 
0.224217 0.0380501 -0.548 
27 35 20 
0.2276 0.0379807 -0.547 
38 40 29 
0.230546 0.0378418 -0.545 
30 43 30 
0.234325 0.0378418 -0.545 
34 46 36 
0.238103 0.0378418 -0.545 
36 48 38 
0.243213 0.0380501 -0.548 
77 83 64 
0.249266 0.0383973 -0.553 
51 52 39 
0.255389 0.0387444 -0.558 
110 137 130 
0.260651 0.0389527 -0.561 
118 155 144 
0.264541 0.0389527 -0.561 
119 155 149 
0.26843 0.0389527 -0.561 
119 157 151 
0.272805 0.0390222 -0.562 
118 159 156 
0.276701 0.0390222 -0.562 
127 163 159 
0.281097 0.0390916 -0.563 
128 162 159 
0.284494 0.0390222 -0.562 
124 167 159 
0.28839 0.0390222 -0.562 
115 161 163 
0.291767 0.0389527 -0.561 
120 169 172 
0.295129 0.0388833 -0.56 
129 166 167 
0.298478 0.0388139 -0.559 
125 166 163 
0.302353 0.0388139 -0.559 
126 169 165 
0.306776 0.0388833 -0.56 
129 167 163 
0.311214 0.0389527 -0.561 
135 164 165 
0.315665 0.0390222 -0.562 
123 164 161 
0.319561 0.0390222 -0.562 
119 166 163 
0.324033 0.0390916 -0.563 
135 177 176 
0.328519 0.0391611 -0.564 
118 164 170 
0.332429 0.0391611 -0.564 
123 167 170 
0.336936 0.0392305 -0.565 
120 169 170 
0.341456 0.0392999 -0.566 
121 173 171 
0.34477 0.0392305 -0.565 
128 170 169 
0.34807 0.0391611 -0.564 
117 163 165 
0.35198 0.0391611 -0.564 
117 167 165 
0.35589 0.0391611 -0.564 
122 169 168 
0.359801 0.0391611 -0.564 
125 173 165 
0.364356 0.0392305 -0.565 
116 162 157 
0.368925 0.0392999 -0.566 
123 170 167 
0.372849 0.0392999 -0.566 
123 170 167 
0.376773 0.0392999 -0.566 
123 170 167 
0.380697 0.0392999 -0.566 
123 170 167 
0.384621 0.0392999 -0.566 
123 170 167 
0.388545 0.0392999 -0.566 
122 170 164 
0.392469 0.0392999 -0.566 
122 170 164 
0.396393 0.0392999 -0.566 
122 170 164 
0.401025 0.0393694 -0.567 
122 170 164 
0.404242 0.0392999 -0.566 
122 170 164 
0.407444 0.0392305 -0.565 
122 170 164 
0.410634 0.0391611 -0.564 
122 170 164 
0.413809 0.0390916 -0.563 
122 170 164 
0.41697 0.0390222 -0.562 
122 170 164 
0.420867 0.0390222 -0.562 
122 170 164 
0.425519 0.0390916 -0.563 
122 170 164 
0.429422 0.0390916 -0.563 
122 170 164 
0.433325 0.0390916 -0.563 
122 170 164 
0.436452 0.0390222 -0.562 
122 170 164 
0.439565 0.0389527 -0.561 
122 170 164 
0.443454 0.0389527 -0.561 
122 170 164 
0.448141 0.0390222 -0.562 
122 170 164 
0.452842 0.0390916 -0.563 
122 170 164 
0.456745 0.0390916 -0.563 
122 170 164 
0.45983 0.0390222 -0.562 
122 170 164 
0.463726 0.0390222 -0.562 
122 170 164 
0.468455 0.0390916 -0.563 
122 170 164 
0.472358 0.0390916 -0.563 
122 170 164 
0.476261 0.0390916 -0.563 
122 170 164 
0.479312 0.0390222 -0.562 
122 170 164 
0.483208 0.0390222 -0.562 
122 170 164 
0.487105 0.0390222 -0.562 
122 170 164 
0.491001 0.0390222 -0.562 
122 170 164 
0.494897 0.0390222 -0.562 
122 170 164 
0.498794 0.0390222 -0.562 
122 170 164 
0.50269 0.0390222 -0.562 
122 170 164 
0.507488 0.0390916 -0.563 
122 170 164 
0.511391 0.0390916 -0.563 
122 170 164 
0.515294 0.0390916 -0.563 
122 170 164 
0.519198 0.0390916 -0.563 
122 170 164 
0.523101 0.0390916 -0.563 
122 170 164 
0.527004 0.0390916 -0.563 
122 170 164 
0.530908 0.0390916 -0.563 
122 170 164 
0.533861 0.0390222 -0.562 
121 167 158 
0.537757 0.0390222 -0.562 
121 167 158 
0.54069 0.0389527 -0.561 
121 167 158 
0.544579 0.0389527 -0.561 
121 167 158 
0.548469 0.0389527 -0.561 
121 167 158 
-0.410929 0.0356258 -0.57 
95 131 129 
-0.406977 0.0356258 -0.57 
102 138 144 
-0.402318 0.0355633 -0.569 
96 130 129 
-0.398373 0.0355633 -0.569 
90 128 126 
-0.394428 0.0355633 -0.569 
94 135 132 
-0.390484 0.0355633 -0.569 
80 124 113 
-0.386539 0.0355633 -0.569 
82 121 112 
-0.382594 0.0355633 -0.569 
86 120 115 
-0.379314 0.0356258 -0.57 
88 118 112 
-0.375363 0.0356258 -0.57 
86 127 120 
-0.371411 0.0356258 -0.57 
73 121 111 
-0.367459 0.0356258 -0.57 
84 126 116 
-0.362869 0.0355633 -0.569 
87 123 119 
-0.358925 0.0355633 -0.569 
70 120 118 
-0.35498 0.0355633 -0.569 
63 118 108 
-0.351035 0.0355633 -0.569 
76 125 112 
-0.34709 0.0355633 -0.569 
81 117 111 
-0.343748 0.0356258 -0.57 
81 117 111 
-0.339796 0.0356258 -0.57 
71 113 112 
-0.335844 0.0356258 -0.57 
78 113 114 
-0.331893 0.0356258 -0.57 
77 115 111 
-0.327365 0.0355633 -0.569 
77 116 107 
-0.322852 0.0355008 -0.568 
79 123 112 
-0.318353 0.0354383 -0.567 
75 114 105 
-0.314422 0.0354383 -0.567 
74 112 106 
-0.311038 0.0355008 -0.568 
75 113 107 
-0.307641 0.0355633 -0.569 
76 119 111 
-0.303696 0.0355633 -0.569 
77 128 119 
-0.300278 0.0356258 -0.57 
80 114 113 
-0.296326 0.0356258 -0.57 
79 117 113 
-0.291348 0.0355008 -0.568 
85 121 117 
-0.286904 0.0354383 -0.567 
78 116 112 
-0.281975 0.0353133 -0.565 
77 113 109 
-0.278058 0.0353133 -0.565 
87 118 114 
-0.274141 0.0353133 -0.565 
73 116 112 
-0.270224 0.0353133 -0.565 
75 118 114 
-0.267249 0.0354383 -0.567 
72 113 106 
-0.263783 0.0355008 -0.568 
78 112 107 
-0.260302 0.0355633 -0.569 
84 120 116 
-0.256808 0.0356258 -0.57 
73 114 109 
-0.252856 0.0356258 -0.57 
95 127 120 
-0.248031 0.0355008 -0.568 
100 132 123 
-0.243663 0.0354383 -0.567 
105 137 126 
-0.239732 0.0354383 -0.567 
95 130 118 
-0.235801 0.0354383 -0.567 
81 120 109 
-0.232279 0.0355008 -0.568 
79 116 105 
-0.228341 0.0355008 -0.568 
82 114 107 
-0.224798 0.0355633 -0.569 
81 118 107 
-0.221242 0.0356258 -0.57 
87 128 123 
-0.21729 0.0356258 -0.57 
86 129 123 
-0.213338 0.0356258 -0.57 
90 126 122 
-0.209386 0.0356258 -0.57 
83 124 119 
-0.205074 0.0355633 -0.569 
88 130 129 
-0.201482 0.0356258 -0.57 
81 124 118 
-0.197531 0.0356258 -0.57 
84 125 118 
-0.193579 0.0356258 -0.57 
84 123 114 
-0.189627 0.0356258 -0.57 
84 123 114 
-0.185349 0.0355633 -0.569 
78 121 113 
-0.181404 0.0355633 -0.569 
80 121 114 
-0.177148 0.0355008 -0.568 
82 123 118 
-0.172905 0.0354383 -0.567 
82 123 120 
-0.168676 0.0353758 -0.566 
76 122 117 
-0.164752 0.0353758 -0.566 
81 131 127 
-0.160543 0.0353133 -0.565 
72 120 112 
-0.156626 0.0353133 -0.565 
74 120 113 
-0.152979 0.0353758 -0.566 
73 119 110 
-0.149582 0.0355008 -0.568 
75 118 112 
-0.1459 0.0355633 -0.569 
82 120 116 
-0.142205 0.0356258 -0.57 
81 118 109 
-0.138253 0.0356258 -0.57 
77 119 109 
-0.134066 0.0355633 -0.569 
76 127 118 
-0.129892 0.0355008 -0.568 
70 121 112 
-0.125732 0.0354383 -0.567 
73 121 115 
-0.121801 0.0354383 -0.567 
76 117 112 
-0.11787 0.0354383 -0.567 
76 117 110 
-0.113939 0.0354383 -0.567 
76 119 111 
-0.110008 0.0354383 -0.567 
78 121 113 
-0.106264 0.0355008 -0.568 
79 121 111 
-0.102326 0.0355008 -0.568 
75 114 105 
-0.0983885 0.0355008 -0.568 
76 118 108 
-0.0944506 0.0355008 -0.568 
76 120 109 
-0.0905126 0.0355008 -0.568 
76 122 113 
-0.0864222 0.0354383 -0.567 
76 122 115 
-0.0824912 0.0354383 -0.567 
73 121 115 
-0.0785602 0.0354383 -0.567 
75 126 119 
-0.0746292 0.0354383 -0.567 
75 123 115 
-0.0706982 0.0354383 -0.567 
77 123 118 
-0.0667671 0.0354383 -0.567 
79 122 118 
-0.0628361 0.0354383 -0.567 
80 121 116 
-0.0588012 0.0353758 -0.566 
83 126 118 
-0.0549741 0.0354383 -0.567 
80 127 115 
-0.051043 0.0354383 -0.567 
73 115 105 
-0.0471951 0.0355008 -0.568 
71 114 106 
-0.0432571 0.0355008 -0.568 
70 118 110 
-0.0393192 0.0355008 -0.568 
74 120 111 
-0.0353812 0.0355008 -0.568 
77 126 113 
-0.0313879 0.0354383 -0.567 
77 125 115 
-0.0274569 0.0354383 -0.567 
83 129 122 
-0.0235259 0.0354383 -0.567 
84 126 116 
-0.0195948 0.0354383 -0.567 
87 131 120 
-0.0156638 0.0354383 -0.567 
86 134 126 
-0.0117328 0.0354383 -0.567 
86 134 126 
-0.00780177 0.0354383 -0.567 
84 130 123 
-0.00387074 0.0354383 -0.567 
85 128 120 
6.02826e-05 0.0354383 -0.567 
89 130 123 
0.00399835 0.0355008 -0.568 
92 135 127 
0.0079363 0.0355008 -0.568 
85 132 120 
0.0118743 0.0355008 -0.568 
86 133 121 
0.0158401 0.0355633 -0.569 
78 125 111 
0.0197502 0.0355008 -0.568 
87 134 122 
0.0236881 0.0355008 -0.568 
88 130 120 
0.0275288 0.0353758 -0.566 
87 129 115 
0.0313973 0.0353133 -0.565 
89 131 119 
0.035252 0.0352508 -0.564 
93 130 119 
0.0390928 0.0351883 -0.563 
80 117 106 
0.0428433 0.0350633 -0.561 
25 38 23 
0.0465662 0.0349383 -0.559 
56 63 41 
0.0502612 0.0348133 -0.557 
28 34 15 
0.0539286 0.0346883 -0.555 
21 27 10 
0.0576723 0.0346258 -0.554 
17 27 13 
0.0616243 0.0346883 -0.555 
13 26 11 
0.0654721 0.0346883 -0.555 
20 25 13 
0.0693199 0.0346883 -0.555 
20 28 13 
0.0730359 0.0346258 -0.554 
20 28 13 
0.0768768 0.0346258 -0.554 
19 29 13 
0.0807177 0.0346258 -0.554 
18 26 13 
0.0845586 0.0346258 -0.554 
20 30 16 
0.0883995 0.0346258 -0.554 
19 32 15 
0.0922404 0.0346258 -0.554 
21 29 14 
0.0959078 0.0345633 -0.553 
19 29 13 
0.0997418 0.0345633 -0.553 
22 27 15 
0.103576 0.0345633 -0.553 
20 28 15 
0.10741 0.0345633 -0.553 
18 28 12 
0.111445 0.0346258 -0.554 
20 31 12 
0.115078 0.0345633 -0.553 
29 32 16 
0.118912 0.0345633 -0.553 
40 43 27 
0.122968 0.0346258 -0.554 
55 60 32 
0.126808 0.0346258 -0.554 
29 32 14 
0.130178 0.0345008 -0.552 
26 29 11 
0.133519 0.0343758 -0.55 
20 29 9 
0.136583 0.0341883 -0.547 
22 31 11 
0.139862 0.0340633 -0.545 
20 28 17 
0.143377 0.0340008 -0.544 
25 30 16 
0.147149 0.0340008 -0.544 
23 32 14 
0.15092 0.0340008 -0.544 
25 31 14 
0.154408 0.0339383 -0.543 
23 29 12 
0.158172 0.0339383 -0.543 
30 39 21 
0.162235 0.0340008 -0.544 
60 64 41 
0.166007 0.0340008 -0.544 
62 66 45 
0.169778 0.0340008 -0.544 
38 31 21 
0.17355 0.0340008 -0.544 
33 28 10 
0.177321 0.0340008 -0.544 
30 27 11 
0.181426 0.0340633 -0.545 
26 29 13 
0.185544 0.0341258 -0.546 
23 27 20 
0.18933 0.0341258 -0.546 
28 36 25 
0.193115 0.0341258 -0.546 
25 33 20 
0.1969 0.0341258 -0.546 
30 32 21 
0.200686 0.0341258 -0.546 
27 32 20 
0.204471 0.0341258 -0.546 
29 34 22 
0.208638 0.0341883 -0.547 
25 33 18 
0.212431 0.0341883 -0.547 
22 32 18 
0.216223 0.0341883 -0.547 
22 32 18 
0.220417 0.0342508 -0.548 
25 33 20 
0.224217 0.0342508 -0.548 
22 30 17 
0.2276 0.0341883 -0.547 
32 40 27 
0.230546 0.0340633 -0.545 
28 52 38 
0.234325 0.0340633 -0.545 
32 54 36 
0.23854 0.0341258 -0.546 
41 53 45 
0.244101 0.0343758 -0.55 
97 89 77 
0.250168 0.0346883 -0.555 
57 57 37 
0.256304 0.0350008 -0.56 
113 144 130 
0.261116 0.0351258 -0.562 
122 154 147 
0.265012 0.0351258 -0.562 
119 154 142 
0.268909 0.0351258 -0.562 
116 152 150 
0.272805 0.0351258 -0.562 
114 160 162 
0.277194 0.0351883 -0.563 
120 163 159 
0.281097 0.0351883 -0.563 
122 163 156 
0.285 0.0351883 -0.563 
122 162 164 
0.28839 0.0351258 -0.562 
129 170 174 
0.292287 0.0351258 -0.562 
127 167 169 
0.295656 0.0350633 -0.561 
124 164 166 
0.299011 0.0350008 -0.56 
118 160 161 
0.302894 0.0350008 -0.56 
126 161 164 
0.306776 0.0350008 -0.56 
123 163 163 
0.311214 0.0350633 -0.561 
127 162 163 
0.315665 0.0351258 -0.562 
119 158 163 
0.319561 0.0351258 -0.562 
127 162 165 
0.324033 0.0351883 -0.563 
129 164 165 
0.328519 0.0352508 -0.564 
128 164 162 
0.332429 0.0352508 -0.564 
115 157 156 
0.336339 0.0352508 -0.564 
126 176 174 
0.34025 0.0352508 -0.564 
116 166 164 
0.34416 0.0352508 -0.564 
116 165 166 
0.34807 0.0352508 -0.564 
117 166 167 
0.35198 0.0352508 -0.564 
123 169 171 
0.356521 0.0353133 -0.565 
127 167 169 
0.360439 0.0353133 -0.565 
125 172 171 
0.364356 0.0353133 -0.565 
119 170 163 
0.368925 0.0353758 -0.566 
117 168 161 
0.373508 0.0354383 -0.567 
117 168 161 
0.378104 0.0355008 -0.568 
117 168 161 
0.382042 0.0355008 -0.568 
117 168 161 
0.385301 0.0354383 -0.567 
117 168 161 
0.389918 0.0355008 -0.568 
117 168 161 
0.393856 0.0355008 -0.568 
117 168 161 
0.397094 0.0354383 -0.567 
117 168 161 
0.401025 0.0354383 -0.567 
117 168 161 
0.404242 0.0353758 -0.566 
117 168 161 
0.408166 0.0353758 -0.566 
117 168 161 
0.410634 0.0352508 -0.564 
117 168 161 
0.413809 0.0351883 -0.563 
117 168 161 
0.41697 0.0351258 -0.562 
117 168 161 
0.420867 0.0351258 -0.562 
117 168 161 
0.424763 0.0351258 -0.562 
117 168 161 
0.428659 0.0351258 -0.562 
117 168 161 
0.432556 0.0351258 -0.562 
117 168 161 
0.435675 0.0350633 -0.561 
117 168 161 
0.439565 0.0350633 -0.561 
117 168 161 
0.444245 0.0351258 -0.562 
117 168 161 
0.449736 0.0352508 -0.564 
117 168 161 
0.453646 0.0352508 -0.564 
117 168 161 
0.457556 0.0352508 -0.564 
117 168 161 
0.460648 0.0351883 -0.563 
117 168 161 
0.464552 0.0351883 -0.563 
117 168 161 
0.468455 0.0351883 -0.563 
117 168 161 
0.472358 0.0351883 -0.563 
117 168 161 
0.476261 0.0351883 -0.563 
117 168 161 
0.479312 0.0351258 -0.562 
117 168 161 
0.483208 0.0351258 -0.562 
117 168 161 
0.486238 0.0350633 -0.561 
117 168 161 
0.490127 0.0350633 -0.561 
120 171 164 
0.494017 0.0350633 -0.561 
120 171 164 
0.497906 0.0350633 -0.561 
120 171 164 
0.50269 0.0351258 -0.562 
120 171 164 
0.507488 0.0351883 -0.563 
120 171 164 
0.511391 0.0351883 -0.563 
120 171 164 
0.515294 0.0351883 -0.563 
120 171 164 
0.519198 0.0351883 -0.563 
120 171 164 
0.523101 0.0351883 -0.563 
120 171 164 
0.526068 0.0351258 -0.562 
120 171 164 
0.529965 0.0351258 -0.562 
120 171 164 
0.532911 0.0350633 -0.561 
120 171 164 
0.535844 0.0350008 -0.56 
120 171 164 
0.538762 0.0349383 -0.559 
120 171 164 
0.542638 0.0349383 -0.559 
120 171 164 
0.546513 0.0349383 -0.559 
120 171 164 
-0.410929 0.031674 -0.57 
97 142 140 
-0.406977 0.031674 -0.57 
90 134 137 
-0.403025 0.031674 -0.57 
80 141 140 
-0.399074 0.031674 -0.57 
85 134 135 
-0.395122 0.031674 -0.57 
99 137 135 
-0.39117 0.031674 -0.57 
89 123 120 
-0.387218 0.031674 -0.57 
86 124 120 
-0.383266 0.031674 -0.57 
78 116 112 
-0.379314 0.031674 -0.57 
82 123 118 
-0.376021 0.0317296 -0.571 
83 127 116 
-0.372062 0.0317296 -0.571 
85 128 120 
-0.368104 0.0317296 -0.571 
91 130 119 
-0.363507 0.031674 -0.57 
87 129 119 
-0.359555 0.031674 -0.57 
77 117 119 
-0.35498 0.0316184 -0.569 
81 117 113 
-0.350418 0.0315629 -0.568 
71 109 107 
-0.34648 0.0315629 -0.568 
76 117 114 
-0.343145 0.0316184 -0.569 
82 119 120 
-0.339796 0.031674 -0.57 
78 116 112 
-0.336434 0.0317296 -0.571 
82 116 111 
-0.332475 0.0317296 -0.571 
87 122 114 
-0.327941 0.031674 -0.57 
79 115 111 
-0.322852 0.0315629 -0.568 
79 117 113 
-0.317791 0.0314517 -0.566 
77 118 111 
-0.313867 0.0314517 -0.566 
75 113 107 
-0.310491 0.0315073 -0.567 
79 117 113 
-0.3071 0.0315629 -0.568 
81 115 110 
-0.303696 0.0316184 -0.569 
80 117 108 
-0.300278 0.031674 -0.57 
85 115 109 
-0.295806 0.0316184 -0.569 
76 117 114 
-0.291348 0.0315629 -0.568 
75 116 113 
-0.286398 0.0314517 -0.566 
74 110 104 
-0.281975 0.0313962 -0.565 
79 111 104 
-0.278058 0.0313962 -0.565 
85 122 113 
-0.274626 0.0314517 -0.566 
79 117 111 
-0.27118 0.0315073 -0.567 
80 116 112 
-0.267721 0.0315629 -0.568 
79 115 109 
-0.264247 0.0316184 -0.569 
70 112 102 
-0.260302 0.0316184 -0.569 
82 114 107 
-0.255907 0.0315629 -0.568 
82 121 110 
-0.251969 0.0315629 -0.568 
119 152 135 
-0.247594 0.0315073 -0.567 
104 142 136 
-0.243233 0.0314517 -0.566 
101 133 124 
-0.239309 0.0314517 -0.566 
103 135 126 
-0.235801 0.0315073 -0.567 
81 123 113 
-0.232279 0.0315629 -0.568 
77 116 107 
-0.228743 0.0316184 -0.569 
85 122 111 
-0.224798 0.0316184 -0.569 
87 124 113 
-0.220853 0.0316184 -0.569 
84 123 112 
-0.216908 0.0316184 -0.569 
86 125 116 
-0.213338 0.031674 -0.57 
87 128 121 
-0.209386 0.031674 -0.57 
83 129 122 
-0.205434 0.031674 -0.57 
86 122 118 
-0.201482 0.031674 -0.57 
86 120 117 
-0.197531 0.031674 -0.57 
86 120 115 
-0.193579 0.031674 -0.57 
88 126 120 
-0.189294 0.0316184 -0.569 
84 123 114 
-0.185349 0.0316184 -0.569 
84 126 116 
-0.181086 0.0315629 -0.568 
60 106 99 
-0.177148 0.0315629 -0.568 
80 125 123 
-0.17321 0.0315629 -0.568 
77 122 120 
-0.168974 0.0315073 -0.567 
75 123 115 
-0.164752 0.0314517 -0.566 
71 122 113 
-0.160828 0.0314517 -0.566 
79 120 115 
-0.157181 0.0315073 -0.567 
82 117 105 
-0.15352 0.0315629 -0.568 
80 117 106 
-0.149845 0.0316184 -0.569 
76 118 106 
-0.146157 0.031674 -0.57 
75 119 106 
-0.142455 0.0317296 -0.571 
77 123 114 
-0.138253 0.031674 -0.57 
79 125 118 
-0.134301 0.031674 -0.57 
83 124 117 
-0.130121 0.0316184 -0.569 
76 122 117 
-0.125732 0.0315073 -0.567 
77 123 118 
-0.121587 0.0314517 -0.566 
81 120 107 
-0.117663 0.0314517 -0.566 
81 120 109 
-0.113738 0.0314517 -0.566 
78 122 109 
-0.109814 0.0314517 -0.566 
74 117 109 
-0.106077 0.0315073 -0.567 
75 116 109 
-0.102326 0.0315629 -0.568 
75 118 110 
-0.0982153 0.0315073 -0.567 
80 124 113 
-0.0942843 0.0315073 -0.567 
74 117 109 
-0.0901939 0.0314517 -0.566 
75 123 113 
-0.0862698 0.0314517 -0.566 
71 122 113 
-0.0823457 0.0314517 -0.566 
72 125 116 
-0.0785602 0.0315073 -0.567 
77 125 115 
-0.0746292 0.0315073 -0.567 
73 121 111 
-0.0706982 0.0315073 -0.567 
72 120 112 
-0.0667671 0.0315073 -0.567 
80 121 114 
-0.0628361 0.0315073 -0.567 
81 122 115 
-0.0588012 0.0314517 -0.566 
80 122 112 
-0.0548771 0.0314517 -0.566 
79 126 114 
-0.050953 0.0314517 -0.566 
75 118 110 
-0.0470289 0.0314517 -0.566 
73 119 110 
-0.0431048 0.0314517 -0.566 
66 114 106 
-0.03925 0.0315073 -0.567 
71 119 109 
-0.0353812 0.0315629 -0.568 
74 125 114 
-0.0314433 0.0315629 -0.568 
80 131 120 
-0.0275053 0.0315629 -0.568 
76 127 118 
-0.0235674 0.0315629 -0.568 
86 134 124 
-0.0196294 0.0315629 -0.568 
85 131 122 
-0.0156638 0.0315073 -0.567 
86 132 123 
-0.0117328 0.0315073 -0.567 
87 130 122 
-0.00780177 0.0315073 -0.567 
93 136 128 
-0.00387757 0.0315629 -0.568 
85 131 124 
6.03889e-05 0.0315629 -0.568 
83 131 121 
0.00399835 0.0315629 -0.568 
93 135 125 
0.0079363 0.0315629 -0.568 
93 139 130 
0.0118743 0.0315629 -0.568 
86 132 123 
0.0158122 0.0315629 -0.568 
86 129 121 
0.0197849 0.0316184 -0.569 
88 131 123 
0.0237298 0.0316184 -0.569 
88 134 127 
0.0275775 0.0315073 -0.567 
91 138 126 
0.0313973 0.0313962 -0.565 
92 139 127 
0.035252 0.0313406 -0.564 
86 135 122 
0.0390233 0.0312295 -0.562 
82 126 111 
0.042767 0.0311183 -0.56 
16 31 15 
0.0464828 0.0310072 -0.558 
54 57 39 
0.0500808 0.0308405 -0.555 
33 37 16 
0.0538314 0.0307849 -0.554 
20 29 11 
0.0576723 0.0307849 -0.554 
18 26 11 
0.0615132 0.0307849 -0.554 
15 23 8 
0.0653541 0.0307849 -0.554 
21 25 18 
0.069195 0.0307849 -0.554 
19 27 16 
0.0730359 0.0307849 -0.554 
21 31 17 
0.0768768 0.0307849 -0.554 
18 28 14 
0.080572 0.0307293 -0.553 
19 27 16 
0.084406 0.0307293 -0.553 
23 31 18 
0.0882399 0.0307293 -0.553 
22 31 13 
0.0920739 0.0307293 -0.553 
17 30 13 
0.0957344 0.0306738 -0.552 
20 31 12 
0.0995614 0.0306738 -0.552 
16 29 16 
0.103388 0.0306738 -0.552 
21 31 15 
0.107216 0.0306738 -0.552 
21 32 13 
0.111043 0.0306738 -0.552 
25 31 14 
0.11487 0.0306738 -0.552 
23 28 14 
0.118697 0.0306738 -0.552 
25 31 14 
0.122746 0.0307293 -0.553 
52 56 31 
0.12658 0.0307293 -0.553 
52 55 30 
0.129942 0.0306182 -0.551 
27 34 10 
0.133276 0.0305071 -0.549 
30 34 13 
0.136334 0.0303404 -0.546 
26 30 9 
0.139606 0.0302292 -0.544 
30 33 15 
0.143114 0.0301737 -0.543 
27 30 14 
0.146878 0.0301737 -0.543 
29 32 16 
0.150366 0.0301181 -0.542 
29 32 16 
0.154123 0.0301181 -0.542 
38 41 23 
0.157881 0.0301181 -0.542 
52 56 35 
0.161937 0.0301737 -0.543 
66 78 52 
0.165702 0.0301737 -0.543 
30 30 24 
0.169466 0.0301737 -0.543 
30 31 18 
0.17355 0.0302292 -0.544 
26 29 13 
0.177647 0.0302848 -0.545 
23 29 12 
0.181759 0.0303404 -0.546 
25 30 16 
0.185884 0.0303959 -0.547 
24 29 17 
0.189676 0.0303959 -0.547 
29 34 22 
0.193469 0.0303959 -0.547 
24 34 18 
0.1969 0.0303404 -0.546 
24 34 18 
0.200686 0.0303404 -0.546 
23 31 16 
0.204471 0.0303404 -0.546 
25 34 16 
0.208638 0.0303959 -0.547 
26 35 17 
0.212819 0.0304515 -0.548 
24 34 18 
0.216618 0.0304515 -0.548 
25 30 18 
0.220417 0.0304515 -0.548 
22 30 15 
0.224217 0.0304515 -0.548 
22 32 20 
0.2276 0.0303959 -0.547 
25 40 26 
0.230546 0.0302848 -0.545 
33 44 42 
0.234325 0.0302848 -0.545 
40 47 41 
0.239414 0.0304515 -0.548 
50 51 45 
0.245876 0.0307849 -0.554 
95 100 70 
0.252422 0.0311183 -0.56 
73 77 52 
0.258135 0.0313406 -0.564 
127 155 142 
0.26251 0.0313962 -0.565 
120 157 146 
0.265955 0.0313406 -0.564 
116 162 157 
0.269387 0.031285 -0.563 
125 166 161 
0.27329 0.031285 -0.563 
124 165 158 
0.276701 0.0312295 -0.562 
118 164 159 
0.280598 0.0312295 -0.562 
129 163 162 
0.284494 0.0312295 -0.562 
129 165 163 
0.28839 0.0312295 -0.562 
125 165 165 
0.292287 0.0312295 -0.562 
122 164 165 
0.295656 0.0311739 -0.561 
120 161 165 
0.299545 0.0311739 -0.561 
122 162 164 
0.303435 0.0311739 -0.561 
122 164 165 
0.307324 0.0311739 -0.561 
122 164 163 
0.311768 0.0312295 -0.562 
123 164 159 
0.316227 0.031285 -0.563 
129 170 167 
0.320698 0.0313406 -0.564 
130 166 164 
0.324609 0.0313406 -0.564 
116 161 159 
0.328519 0.0313406 -0.564 
123 164 161 
0.332429 0.0313406 -0.564 
119 170 163 
0.336339 0.0313406 -0.564 
122 168 161 
0.34025 0.0313406 -0.564 
133 174 169 
0.34416 0.0313406 -0.564 
125 165 165 
0.348687 0.0313962 -0.565 
132 172 174 
0.352604 0.0313962 -0.565 
122 169 168 
0.356521 0.0313962 -0.565 
124 173 174 
0.361077 0.0314517 -0.566 
129 171 170 
0.365001 0.0314517 -0.566 
125 175 171 
0.368925 0.0314517 -0.566 
120 163 159 
0.373508 0.0315073 -0.567 
120 163 159 
0.378104 0.0315629 -0.568 
120 163 159 
0.382042 0.0315629 -0.568 
120 163 159 
0.38666 0.0316184 -0.569 
120 163 159 
0.389918 0.0315629 -0.568 
120 163 159 
0.393856 0.0315629 -0.568 
120 163 159 
0.397094 0.0315073 -0.567 
120 163 159 
0.400317 0.0314517 -0.566 
120 163 159 
0.404242 0.0314517 -0.566 
120 163 159 
0.408166 0.0314517 -0.566 
120 163 159 
0.411362 0.0313962 -0.565 
120 163 159 
0.414544 0.0313406 -0.564 
120 163 159 
0.418454 0.0313406 -0.564 
120 163 159 
0.421615 0.031285 -0.563 
120 163 159 
0.425519 0.031285 -0.563 
120 163 159 
0.429422 0.031285 -0.563 
120 163 159 
0.432556 0.0312295 -0.562 
120 163 159 
0.436452 0.0312295 -0.562 
120 163 159 
0.440348 0.0312295 -0.562 
120 163 159 
0.445035 0.031285 -0.563 
120 163 159 
0.450533 0.0313962 -0.565 
120 163 159 
0.45445 0.0313962 -0.565 
126 171 169 
0.458368 0.0313962 -0.565 
126 171 169 
0.461467 0.0313406 -0.564 
126 171 169 
0.465377 0.0313406 -0.564 
126 171 169 
0.468455 0.031285 -0.563 
126 171 169 
0.472358 0.031285 -0.563 
126 171 169 
0.476261 0.031285 -0.563 
126 171 169 
0.480165 0.031285 -0.563 
126 171 169 
0.483208 0.0312295 -0.562 
126 171 169 
0.487105 0.0312295 -0.562 
126 171 169 
0.490127 0.0311739 -0.561 
126 171 169 
0.493136 0.0311183 -0.56 
126 171 169 
0.497906 0.0311739 -0.561 
126 171 169 
0.503585 0.031285 -0.563 
126 171 169 
0.508389 0.0313406 -0.564 
126 171 169 
0.512299 0.0313406 -0.564 
126 171 169 
0.51621 0.0313406 -0.564 
126 171 169 
0.519198 0.031285 -0.563 
126 171 169 
0.523101 0.031285 -0.563 
126 171 169 
0.526068 0.0312295 -0.562 
126 171 169 
0.529022 0.0311739 -0.561 
126 171 169 
0.532911 0.0311739 -0.561 
126 171 169 
0.535844 0.0311183 -0.56 
126 171 169 
0.538762 0.0310628 -0.559 
126 171 169 
0.542638 0.0310628 -0.559 
126 171 169 
0.546513 0.0310628 -0.559 
126 171 169 
-0.410929 0.0277222 -0.57 
96 134 128 
-0.406977 0.0277222 -0.57 
97 135 129 
-0.403732 0.0277708 -0.571 
99 137 133 
-0.399774 0.0277708 -0.571 
93 140 137 
-0.395815 0.0277708 -0.571 
95 135 135 
-0.391856 0.0277708 -0.571 
88 123 111 
-0.387897 0.0277708 -0.571 
86 121 113 
-0.383266 0.0277222 -0.57 
83 124 121 
-0.379314 0.0277222 -0.57 
79 121 122 
-0.375363 0.0277222 -0.57 
85 122 123 
-0.372062 0.0277708 -0.571 
82 124 125 
-0.368104 0.0277708 -0.571 
81 127 122 
-0.364145 0.0277708 -0.571 
83 128 126 
-0.359555 0.0277222 -0.57 
80 120 120 
-0.354356 0.0276249 -0.568 
85 114 115 
-0.349801 0.0275763 -0.567 
78 115 116 
-0.34648 0.0276249 -0.568 
84 120 116 
-0.342542 0.0276249 -0.568 
83 121 119 
-0.339796 0.0277222 -0.57 
78 121 117 
-0.336434 0.0277708 -0.571 
71 114 106 
-0.332475 0.0277708 -0.571 
74 117 109 
-0.327941 0.0277222 -0.57 
76 119 111 
-0.322852 0.0276249 -0.568 
76 118 108 
-0.318353 0.0275763 -0.567 
76 114 108 
-0.314422 0.0275763 -0.567 
64 112 106 
-0.310491 0.0275763 -0.567 
71 117 110 
-0.30656 0.0275763 -0.567 
81 119 113 
-0.303162 0.0276249 -0.568 
70 116 109 
-0.299224 0.0276249 -0.568 
77 125 119 
-0.295286 0.0276249 -0.568 
76 117 114 
-0.290835 0.0275763 -0.567 
77 118 111 
-0.286904 0.0275763 -0.567 
76 115 104 
-0.282973 0.0275763 -0.567 
77 114 101 
-0.279042 0.0275763 -0.567 
72 114 102 
-0.275597 0.0276249 -0.568 
77 116 107 
-0.271659 0.0276249 -0.568 
80 115 107 
-0.267721 0.0276249 -0.568 
80 117 108 
-0.264247 0.0276736 -0.569 
79 114 106 
-0.259845 0.0276249 -0.568 
80 114 111 
-0.255907 0.0276249 -0.568 
87 121 116 
-0.251525 0.0275763 -0.567 
138 164 149 
-0.247594 0.0275763 -0.567 
117 150 133 
-0.243233 0.0275276 -0.566 
107 134 125 
-0.239309 0.0275276 -0.566 
96 128 117 
-0.235385 0.0275276 -0.566 
88 123 111 
-0.232279 0.0276249 -0.568 
81 117 115 
-0.228743 0.0276736 -0.569 
83 124 117 
-0.225193 0.0277222 -0.57 
78 121 113 
-0.221242 0.0277222 -0.57 
87 121 116 
-0.21729 0.0277222 -0.57 
98 128 120 
-0.213338 0.0277222 -0.57 
85 122 109 
-0.209386 0.0277222 -0.57 
79 120 113 
-0.205795 0.0277708 -0.571 
79 122 114 
-0.201836 0.0277708 -0.571 
86 124 118 
-0.197531 0.0277222 -0.57 
88 126 122 
-0.193579 0.0277222 -0.57 
87 123 119 
-0.189294 0.0276736 -0.569 
84 122 118 
-0.185349 0.0276736 -0.569 
80 121 114 
-0.181404 0.0276736 -0.569 
81 119 115 
-0.17746 0.0276736 -0.569 
84 130 123 
-0.173515 0.0276736 -0.569 
79 125 120 
-0.16957 0.0276736 -0.569 
74 120 111 
-0.165625 0.0276736 -0.569 
78 121 115 
-0.16168 0.0276736 -0.569 
75 118 112 
-0.157735 0.0276736 -0.569 
78 121 115 
-0.15379 0.0276736 -0.569 
81 124 116 
-0.150109 0.0277222 -0.57 
73 119 112 
-0.146157 0.0277222 -0.57 
74 117 111 
-0.142455 0.0277708 -0.571 
83 129 124 
-0.138253 0.0277222 -0.57 
80 127 124 
-0.134301 0.0277222 -0.57 
81 124 116 
-0.130121 0.0276736 -0.569 
77 123 114 
-0.125732 0.0275763 -0.567 
76 122 115 
-0.121587 0.0275276 -0.566 
77 123 116 
-0.117455 0.027479 -0.565 
76 122 113 
-0.113538 0.027479 -0.565 
73 124 113 
-0.10962 0.027479 -0.565 
76 122 113 
-0.10589 0.0275276 -0.566 
80 122 112 
-0.102146 0.0275763 -0.567 
76 117 110 
-0.0982153 0.0275763 -0.567 
76 119 111 
-0.0942843 0.0275763 -0.567 
79 123 112 
-0.0903533 0.0275763 -0.567 
77 123 114 
-0.0862698 0.0275276 -0.566 
76 124 114 
-0.0823457 0.0275276 -0.566 
78 121 113 
-0.0784217 0.0275276 -0.566 
78 124 119 
-0.0746292 0.0275763 -0.567 
75 123 117 
-0.0706982 0.0275763 -0.567 
81 124 118 
-0.0667671 0.0275763 -0.567 
79 120 113 
-0.0628361 0.0275763 -0.567 
82 123 116 
-0.0588012 0.0275276 -0.566 
86 129 121 
-0.0548771 0.0275276 -0.566 
80 123 117 
-0.050953 0.0275276 -0.566 
79 122 116 
-0.0469458 0.027479 -0.565 
74 125 118 
-0.0431048 0.0275276 -0.566 
73 124 113 
-0.03925 0.0275763 -0.567 
70 121 110 
-0.0353812 0.0276249 -0.568 
75 123 115 
-0.0314433 0.0276249 -0.568 
83 129 120 
-0.0275537 0.0276736 -0.569 
83 131 123 
-0.0235674 0.0276249 -0.568 
84 132 122 
-0.0196294 0.0276249 -0.568 
87 133 124 
-0.0156638 0.0275763 -0.567 
84 133 120 
-0.0117328 0.0275763 -0.567 
83 130 118 
-0.00780177 0.0275763 -0.567 
86 134 124 
-0.00387757 0.0276249 -0.568 
90 137 125 
6.03889e-05 0.0276249 -0.568 
84 131 119 
0.00399835 0.0276249 -0.568 
93 140 128 
0.0079363 0.0276249 -0.568 
87 136 121 
0.0118743 0.0276249 -0.568 
83 135 121 
0.0158122 0.0276249 -0.568 
92 136 123 
0.0197849 0.0276736 -0.569 
87 129 117 
0.0237715 0.0277222 -0.57 
94 135 130 
0.0276261 0.0276249 -0.568 
92 136 125 
0.0313973 0.027479 -0.565 
99 143 132 
0.0351895 0.0273817 -0.563 
86 133 121 
0.0389539 0.0272845 -0.561 
80 124 111 
0.0426906 0.0271872 -0.559 
24 37 32 
0.0463162 0.0270413 -0.556 
61 64 46 
0.0499905 0.026944 -0.554 
45 52 30 
0.0537343 0.0268954 -0.553 
20 26 7 
0.0575682 0.0268954 -0.553 
19 28 10 
0.0614022 0.0268954 -0.553 
16 25 7 
0.0653541 0.026944 -0.554 
21 29 16 
0.069195 0.026944 -0.554 
19 29 13 
0.0730359 0.026944 -0.554 
18 28 12 
0.0768768 0.026944 -0.554 
18 28 12 
0.080572 0.0268954 -0.553 
21 29 14 
0.084406 0.0268954 -0.553 
20 29 11 
0.0880804 0.0268468 -0.552 
22 32 16 
0.0919074 0.0268468 -0.552 
20 28 13 
0.095561 0.0267981 -0.551 
21 30 12 
0.0993811 0.0267981 -0.551 
22 28 11 
0.103201 0.0267981 -0.551 
22 31 13 
0.107021 0.0267981 -0.551 
20 31 12 
0.110841 0.0267981 -0.551 
22 31 13 
0.114661 0.0267981 -0.551 
23 31 16 
0.118697 0.0268468 -0.552 
25 30 16 
0.122524 0.0268468 -0.552 
31 33 17 
0.126351 0.0268468 -0.552 
48 55 33 
0.129706 0.0267495 -0.55 
47 51 23 
0.133034 0.0266522 -0.548 
39 51 16 
0.136084 0.0265063 -0.545 
23 32 14 
0.139349 0.026409 -0.543 
25 31 14 
0.14285 0.0263604 -0.542 
25 27 14 
