ply
format ascii 1.0
comment Created by Open3D
element vertex 1329
property double x
property double y
property double z
property uchar red
property uchar green
property uchar blue
end_header
145.601 -81.1249 -1069.34 111 152 147
995.65 157.378 -1291.43 118 158 156
79.705 532.626 -1051.62 57 109 110
50.551 158.019 -1042.94 89 128 125
892.843 142.851 -1266.33 116 159 155
892.555 547.803 -1266.42 120 152 149
786.497 444.234 -1239.7 109 155 155
395.887 -22.2937 -1135.73 115 152 141
1178.7 -123.858 -1639.84 134 171 174
547.097 308.119 -1175.29 40 55 36
907.206 457.62 -1267.83 115 150 142
1147.96 322.657 -1624.49 123 162 167
485.249 265.186 -1155.68 78 112 100
651.623 -52.2226 -1201.74 107 141 137
665.837 488.214 -1207.06 107 140 141
500.146 127.782 -1163.86 113 152 141
664.858 548.647 -1207.59 106 139 141
696.457 458.843 -1216.66 105 142 138
291.385 243.822 -1090.98 37 57 45
906.995 142.873 -1272.03 114 156 152
802.102 203.163 -1243.53 116 159 158
892.984 457.268 -1265.91 114 149 141
283.997 169.865 -1090.17 151 168 140
547.515 366.117 -1176.29 96 138 130
444.556 293.322 -1130.01 16 28 14
636.879 548.17 -1198.78 98 144 140
486.247 458.328 -1161.37 90 130 122
486.214 459.334 -1148.48 19 23 11
350.789 549.373 -1125.63 71 99 92
563.664 458.243 -1158.66 39 44 26
529.539 128.547 -1172.04 114 152 142
680.057 323.181 -1187.13 40 52 34
475.074 575.284 -1159.81 18 28 14
546.144 548.868 -1176.3 43 52 40
303.648 337.932 -1112.26 69 103 94
786.558 277.799 -1239.94 114 160 158
710.955 398.186 -1217.11 104 142 137
536.453 126.422 -1174.98 117 155 143
506.763 231.644 -1146.87 23 35 20
947.107 547.693 -1277.97 119 150 148
457.372 458.196 -1146.81 25 33 20
620.856 368.828 -1195.51 102 139 131
710.929 323.441 -1221.1 112 146 139
426.532 473.385 -1141.58 31 31 16
592.471 550.352 -1188.3 65 92 85
427.707 471.667 -1146.14 91 127 116
475.781 292.727 -1153.54 86 127 115
832.062 351.248 -1252.04 114 156 153
202.274 367.191 -1086.44 67 105 96
1161.4 590.138 -1644.39 118 155 155
607.07 548.352 -1191.15 99 144 141
51.2297 352.203 -1044 68 109 108
1182.24 212.209 -1615.38 120 164 158
187.315 7.90855 -1078.21 112 155 146
342.907 183.524 -1098.83 23 34 18
247.318 338.625 -1099.84 70 106 97
442.858 533.5 -1151.29 32 36 23
681.21 548.458 -1211.19 100 141 136
201.742 428.53 -1087.38 68 105 95
576.629 533.14 -1186.01 56 62 44
950.347 54.3118 -1281.6 113 163 164
770.666 548.445 -1236.26 107 149 150
170.545 69.1934 -1075.28 110 145 138
802.032 548.267 -1243.07 112 145 146
817.486 274.797 -1249.99 115 158 155
952.983 23.4594 -1280.99 120 164 158
862.04 548.384 -1259.23 119 150 148
477.72 50.0743 -1159.54 117 152 142
697.002 519.351 -1216.41 106 144 141
66.4116 -36.5115 -1049.13 109 151 143
487.69 534.63 -1161.03 46 62 53
155.656 323.854 -1074.74 64 101 93
886.674 534.685 -1262.86 119 150 148
893.372 531.645 -1265.87 119 151 149
598.711 404.473 -1187.71 99 134 126
335.864 504.143 -1122.81 70 100 95
231.904 369.15 -1094.12 71 108 101
921.556 548.836 -1275.76 119 150 148
636.719 369.613 -1198.89 103 140 131
714.068 397.865 -1220.41 115 156 149
831.914 427.85 -1250.95 108 148 143
535.842 457.948 -1173.81 104 143 139
861.968 324.015 -1260.39 113 152 150
396.683 518.64 -1138.53 47 52 37
96.1172 263.307 -1055.92 73 111 106
1181.94 681.047 -1617.89 116 153 154
905.989 518.946 -1270.83 119 150 148
922.415 157.642 -1275.01 119 159 156
561.001 173.419 -1179.51 111 150 139
39.5734 548.031 -1044.09 78 111 101
877.712 458.965 -1262.71 114 148 141
742.203 219.613 -1229.47 115 148 140
534.848 441.933 -1174.35 105 142 136
396.558 -66.4834 -1133.16 115 152 140
66.4073 548.504 -1049.14 69 105 101
277.39 488.35 -1107.58 72 102 91
397.825 37.8249 -1117.76 62 71 53
1194.83 565.016 -1647.91 115 158 155
482.904 426.528 -1143.44 17 23 10
1172.47 307.315 -1632.47 118 168 165
85.6299 480.347 -1054.68 64 102 100
1150.48 601.179 -1639.65 116 153 154
545.864 444.347 -1177.44 105 144 138
95.6726 547.439 -1057.98 75 109 107
291.749 202.822 -1106.58 82 125 117
135.672 532.229 -1068.05 60 101 94
485.129 82.7593 -1156.27 105 141 131
621.121 474.047 -1196.78 100 143 140
966.863 307.4 -1287.69 113 153 148
336.266 -36.1139 -1117.63 116 149 136
1209.6 606.52 -1672.78 116 153 154
96.509 219.152 -1056.66 79 118 114
143.055 442.956 -1070.5 69 106 100
312.388 367.46 -1114.28 61 99 89
188.247 383.837 -1080.39 62 99 88
126.28 547.544 -1066.76 68 99 100
411.246 188.054 -1140.51 83 123 113
67.6856 52.8697 -1048.35 101 145 139
142.189 548.754 -1072.08 67 105 102
261.239 382.263 -1104.02 70 106 97
816.962 503.275 -1246.24 106 147 148
995.665 83.2353 -1292.33 115 157 151
262.983 291.267 -1100.51 77 115 108
199.496 96.6721 -1082.04 110 142 133
381.21 108.952 -1112.85 54 74 58
172.917 338.407 -1076.88 64 103 95
458.925 433.764 -1142.4 19 25 10
98.8833 23.7553 -1055.52 104 156 155
490.514 -50.6479 -1160.27 125 161 150
1183.06 547.117 -1640.1 115 159 154
831.613 324.358 -1252.98 112 151 148
321.8 338.569 -1118.81 65 101 91
308.213 473.894 -1115.31 73 105 94
366.097 69.3934 -1126.98 108 146 138
920.594 8.87123 -1272.97 108 155 152
300.787 477.564 -1113.23 71 100 95
833.953 370.482 -1250.93 112 152 147
217.172 548.636 -1089.38 65 85 71
201.063 308.354 -1086.78 68 108 100
936.569 50.8336 -1277.02 116 166 167
514.124 338.546 -1154.01 23 30 16
277.512 547.665 -1106.37 71 101 90
231.138 548.041 -1092.13 69 79 65
456.454 -67.5602 -1151.11 116 153 144
263.783 311.16 -1100.92 71 111 104
139.839 273.922 -1068.14 68 108 99
261.454 547.567 -1102.95 70 108 98
1153.37 55.2564 -1618.3 122 169 165
216.239 37.8409 -1086.41 117 153 146
980.263 157.343 -1288.17 119 159 156
564.328 198.3 -1157.79 40 52 33
350.512 275.026 -1105.08 16 24 10
216.25 518.634 -1090.94 65 82 70
395.199 532.416 -1136.44 49 51 36
140.587 173.361 -1067.05 91 125 118
156.507 -6.78907 -1072.21 113 155 148
302.496 443.161 -1113.44 67 102 91
292.886 548.346 -1111.23 69 103 97
303.971 553.01 -1112.83 75 103 97
606.981 53.6724 -1191.82 118 159 152
1003.17 541.367 -1294.77 119 150 148
1166.08 213.929 -1617.85 121 165 158
306.209 113.8 -1112.13 101 138 127
935.548 523.677 -1278.48 120 152 150
558.347 292.259 -1171.84 23 33 17
396.106 547.172 -1137.69 48 52 37
411.86 398.696 -1135.81 19 28 16
697.49 -51.9004 -1213.35 105 137 136
381.093 248.396 -1132.14 79 122 112
486.331 475.202 -1161.57 90 130 121
41.4612 144.13 -1040.72 89 128 127
621.311 337.924 -1194.82 105 144 134
756.421 324.145 -1230.71 109 149 145
456.112 549.866 -1154.35 27 34 21
1206.72 427.81 -1642.27 113 164 161
51.5276 144.181 -1042.66 89 129 126
402.357 229.021 -1126.12 23 35 18
785.723 -37.3374 -1237.03 109 150 145
246.79 308.782 -1095.88 71 112 107
535.612 548.174 -1174.88 46 53 39
590.252 265.155 -1161.42 41 46 25
785.331 412.937 -1238.33 110 151 147
126.468 187.871 -1063.38 86 123 118
489.401 39.5363 -1159.82 113 165 163
697.458 -37.3981 -1213.51 104 138 136
774.003 412.481 -1236.01 105 145 143
487.624 339.533 -1146.27 17 26 14
876.537 37.7415 -1259.45 112 157 150
191.233 521.061 -1084.98 69 104 102
416.715 179.511 -1144.26 86 132 125
484.127 324.991 -1142.77 16 26 12
137.798 127.565 -1067.72 99 135 128
560.619 549.126 -1180.42 37 45 33
110.885 352.786 -1060.83 76 112 105
372.97 233.953 -1130.49 81 123 114
1212.69 342.152 -1649.77 121 163 159
741.319 277.929 -1227 115 153 150
726.057 173.702 -1224.77 115 149 141
171.236 294.239 -1077.08 68 106 99
937.301 37.8429 -1276.71 112 156 151
505.86 473.271 -1167.39 105 140 129
456.581 53.2617 -1150.54 115 150 139
566.319 428.592 -1182.15 103 148 145
261.804 144.569 -1100.53 99 135 126
520.209 398.904 -1168.83 103 140 128
966.551 443.304 -1282.82 112 148 145
565.45 383.005 -1182.16 102 146 141
246.996 158.796 -1095.69 100 133 125
785.728 157.495 -1237.88 117 155 151
202.042 533.272 -1086.23 68 110 114
230.699 112.914 -1091.93 109 140 130
775.749 488.049 -1235.61 115 152 154
1180.75 678.928 -1633.01 116 153 154
486.254 425.012 -1161.01 93 129 121
1021.51 -79.2405 -1298.92 108 158 154
51.6597 -51.5535 -1043.22 112 156 149
1196.21 618.774 -1660.02 116 153 154
1197.94 675.989 -1615.79 116 153 154
462.888 229.306 -1139.36 22 34 18
477.336 555.928 -1159.38 22 26 21
519.741 492.316 -1163.47 44 57 45
774.654 534.024 -1232.19 119 156 162
184.907 444.491 -1082.98 66 104 97
139.75 322.755 -1066.72 64 104 96
447.16 109.861 -1126.16 43 52 31
981.653 -37.074 -1289.22 108 158 154
980.129 -6.86971 -1286.95 108 158 154
145.307 325.497 -1070.57 69 105 97
500.907 263.154 -1163.39 96 140 129
876.223 534.429 -1258.6 119 151 149
711.376 38.9991 -1218.21 111 151 149
906.541 532.555 -1269.75 119 151 149
564.008 317.763 -1175.9 42 59 45
514.268 369.429 -1150.72 16 25 11
1202.7 675.964 -1642.26 116 153 154
439.135 309.416 -1128.52 28 39 20
323.6 -6.67982 -1115.13 115 148 142
97.0472 518.801 -1056.57 74 107 105
39.9243 338.069 -1041.79 65 108 103
381.948 37.3991 -1131.97 110 160 160
126.601 38.0861 -1063.12 105 151 146
670.637 201.816 -1201.4 38 47 31
997.306 -6.41796 -1292.84 108 158 154
999.415 170.171 -1294.85 116 155 152
1218.84 677.367 -1651.76 116 153 154
846.642 -51.2407 -1252.19 112 161 158
1021.71 231.613 -1299.76 112 151 147
820.649 338.463 -1249.16 124 165 159
906.394 502.814 -1271.04 119 150 148
877.093 488.226 -1261.59 119 150 148
665.874 24.2222 -1206.87 114 153 146
155.848 353.16 -1072.3 64 101 97
564.072 295.191 -1176.19 51 61 41
1190.77 415.692 -1638.8 114 161 155
1203.14 205.414 -1618.57 118 166 163
183.135 532.54 -1082.37 67 110 110
327.824 229.808 -1096.82 19 27 13
190.446 533.843 -1084.86 70 108 106
125.255 129.205 -1064.58 98 133 128
802.311 503.433 -1244.87 112 145 146
906.599 413.032 -1269.22 113 153 149
304.654 367.64 -1112.78 65 104 94
827.685 368.903 -1248.03 108 148 141
277.287 533.075 -1106.59 71 101 90
637.043 188.016 -1198.92 102 136 125
697.7 533.328 -1215.57 107 143 142
291.876 532.857 -1111.02 68 103 97
291.073 353.417 -1111.36 71 109 99
708.388 97.0723 -1217.84 117 150 143
96.3733 -6.50599 -1056.02 107 151 145
713.031 99.7022 -1220.64 113 148 142
216.537 503.727 -1090.58 64 81 69
247.298 -65.7611 -1095.42 114 132 119
486.341 152.608 -1156.93 124 161 148
828.56 460.322 -1248.52 115 151 146
1191.89 547.402 -1642.12 118 158 154
408.846 533.156 -1141.82 31 36 22
516.85 -7.11217 -1166.77 120 155 148
365.443 23.1079 -1126.61 111 151 141
399.773 458.505 -1132.12 36 43 29
520.771 188.993 -1147.36 40 52 30
326.722 305.042 -1109.21 19 26 13
1168.73 624.518 -1652.74 116 153 154
950.993 -37.4187 -1282.38 109 159 155
275.088 233.381 -1103.71 81 119 111
637.358 24.1103 -1198.97 115 154 149
1213.75 -84.8833 -1643.02 128 172 170
156.323 247.806 -1072.5 75 110 103
546.63 98.6925 -1176.4 115 152 143
815.015 489.795 -1250.86 108 146 146
876.436 292.765 -1262.95 112 153 150
111.306 -81.3333 -1059.56 109 150 143
426.544 7.57989 -1142.09 114 150 141
426.399 533.157 -1147.08 44 48 33
312.667 0.176746 -1114.39 114 146 135
772.105 66.4477 -1235.63 114 156 151
313.267 259.324 -1097.12 16 24 10
441.034 504.015 -1150.75 36 39 27
1160.37 101.396 -1591.32 124 165 162
950.382 -52.7748 -1281.4 112 161 157
1196.08 -8.07116 -1632.46 125 163 154
471.029 533.357 -1157.57 24 31 20
459.156 95.695 -1131.75 28 39 21
1232.18 622.034 -1672.59 116 153 154
591.108 173.471 -1186.12 104 140 129
486.541 504.935 -1160.52 34 48 38
185.587 219.088 -1080.72 79 115 105
978.736 532.394 -1298.32 116 153 154
126.457 172.728 -1064.85 88 125 121
499.996 532.868 -1165.19 30 32 24
155.979 277.745 -1073.92 66 106 100
397.573 413.657 -1130.9 25 32 18
516.013 533.079 -1169.92 29 36 22
363.255 248.254 -1127.73 75 119 109
82.7718 428.389 -1054.96 67 106 98
890.962 217.885 -1268.81 120 155 152
290.764 233.788 -1108.56 80 119 110
528.74 532.757 -1172.52 39 46 34
51.0503 233.672 -1044.89 74 113 111
561.2 533.753 -1180.11 38 47 35
1011.1 128.37 -1299.46 117 154 151
291.136 413.35 -1109.87 67 103 92
1211.34 543.414 -1648.83 117 161 156
290.463 323.603 -1108.55 67 105 96
1165.97 484.777 -1632.86 115 164 163
591.309 535.368 -1188.24 81 105 96
713.353 368.839 -1220.64 108 145 140
606.358 533.032 -1192.59 98 144 142
1194.58 605.423 -1662.6 116 153 154
953.34 532.425 -1281.08 120 152 150
650.666 533.197 -1202.2 109 142 142
291.258 504.008 -1110.98 68 103 97
666.183 533.611 -1207.6 106 138 140
398.257 83.6985 -1115.05 24 34 20
982.146 323.866 -1290.6 112 150 147
818.285 -36.6001 -1245.95 113 155 150
388.899 79.9202 -1111.64 33 44 25
51.6109 338.119 -1044.02 70 109 106
741.764 -37.7328 -1226.12 109 149 140
536.182 472.905 -1172.12 104 145 143
327.162 319.67 -1108.57 40 48 22
680.897 532.616 -1211.64 100 141 136
411.551 338.605 -1123.81 13 21 8
712.322 531.701 -1220.91 107 141 143
97.0084 8.92208 -1055.89 107 150 145
754.985 532.718 -1230.23 106 148 149
681.455 503.616 -1213.42 101 142 137
1159.33 320.339 -1636.85 120 164 166
589.408 218.878 -1187.43 106 145 135
980.968 67.892 -1290.39 120 154 148
1174.76 -110.113 -1645.57 134 171 174
785.64 534.047 -1238.64 110 149 149
620.609 202.807 -1196.06 109 146 137
456.587 38.5661 -1150.78 112 165 166
817.516 533.084 -1246.86 105 147 148
201.41 -21.1763 -1081.77 117 154 145
66.2937 398.572 -1050.63 63 106 105
264.508 130.444 -1099.54 101 136 126
1180.88 93.7781 -1606.91 122 167 162
964.991 -51.6801 -1283.34 111 160 157
1161.31 605.693 -1644.93 116 153 154
321.906 278.35 -1116.95 67 110 102
846.165 533.523 -1256.71 119 150 148
697.513 369.576 -1215.9 108 144 139
861.083 368.89 -1256.01 113 150 145
921.807 532.722 -1274.82 119 150 148
110.542 127.575 -1058.91 96 134 130
951.697 307.336 -1283.51 114 153 148
517.115 39.0663 -1165.49 117 163 161
605.901 323.803 -1191.31 103 139 131
937.228 534.915 -1277.01 119 150 148
742.159 263.438 -1228.98 114 151 146
217.089 309.036 -1090.29 65 107 100
49.7977 532.234 -1044.63 75 111 112
461.479 273.403 -1149.17 173 199 167
456.153 127.766 -1152.08 106 148 139
637.298 -20.48 -1196.49 113 141 136
352.196 518.644 -1126.87 72 100 92
186.87 234.134 -1081.09 78 112 102
862.091 8.04798 -1258.28 108 156 152
335.769 -66.637 -1117.87 116 148 136
1218.08 251.381 -1647.41 122 162 159
1204.43 130.749 -1623.05 119 169 165
204.553 322.723 -1085.36 71 110 100
516.531 202.637 -1168.44 106 147 134
155.463 533.563 -1073.43 69 107 107
320.954 518.707 -1119.26 69 103 95
66.6055 278.026 -1048.18 67 107 104
302.589 427.945 -1112.34 64 102 91
1191.13 197.938 -1607.93 117 168 160
172.223 533.589 -1079.07 67 106 102
231.052 532.638 -1092.37 68 78 64
321.549 442.907 -1118.4 66 101 87
261.107 262.873 -1102.3 75 114 107
577.2 188.136 -1183.67 112 147 133
305.014 294.244 -1111.69 72 109 100
606.697 474.331 -1192.07 99 141 139
846.208 488.258 -1255.18 119 150 148
681.646 295.983 -1192.65 62 71 47
655.577 442.932 -1204.58 106 148 145
79.5788 308.865 -1051.6 68 108 103
506.179 95.7183 -1154.89 42 51 34
725.73 519.362 -1224.43 106 143 141
548.21 333.441 -1176.72 100 141 131
712.581 517.386 -1221.09 104 139 140
488.008 261.49 -1161.97 90 135 125
545.772 338.796 -1165.51 21 28 14
301.319 535.195 -1113.02 72 100 97
232.44 294.164 -1092.56 73 111 105
1191.59 38.1691 -1602.27 118 166 161
1000.14 531.71 -1295.51 119 150 148
428.221 428.406 -1146.37 69 98 89
456.607 98.8876 -1150.4 113 148 138
142.299 474.313 -1070.96 68 107 103
707.42 207.203 -1218.34 113 149 140
351.581 533.701 -1127.7 72 99 92
171.515 219.073 -1076.9 80 116 110
725.496 -21.4127 -1222.26 104 147 143
712.444 202.333 -1220.86 114 150 145
950.889 292.901 -1283.04 112 154 151
965.96 292.535 -1285.75 111 152 148
51.1078 488.095 -1046.6 69 111 111
665.945 -51.1602 -1205.8 109 137 134
96.2304 277.403 -1057.4 68 107 102
290.619 278.235 -1109.18 73 112 102
412.094 7.14407 -1139.45 115 153 145
416.202 533.713 -1144.86 34 32 24
577.235 -6.59236 -1182.09 115 152 142
711.686 -37.2733 -1218.18 101 145 139
560.91 -6.91737 -1177.15 121 155 148
485.856 489.294 -1152.63 21 28 19
156.539 412.511 -1070.94 64 103 95
621.367 -66.2256 -1192.67 115 144 136
862.389 459.153 -1260.91 114 148 141
712.653 506.734 -1220.7 109 143 146
290.763 475.025 -1111.94 69 103 96
664.872 68.8244 -1206.98 114 152 144
981.203 188.975 -1288.6 116 157 152
653.548 69.8055 -1205.5 114 150 142
188.575 337.939 -1079.91 66 102 97
589.988 127.258 -1188.33 115 154 144
741.459 519.028 -1226.62 102 147 142
563.093 380.849 -1161.23 20 27 14
725.838 -37.6536 -1222.07 107 148 144
1219.73 -200.642 -1654.88 134 171 174
96.1673 398.701 -1057.15 69 108 101
712.017 427.841 -1220.98 104 144 138
1208.53 288.84 -1630.36 117 167 165
921.701 521.044 -1275.94 119 151 149
906.187 383.57 -1266.28 110 151 148
322.186 173.025 -1115.64 89 129 120
785.783 294.55 -1238.13 113 154 150
424.606 127.955 -1142.61 105 146 136
50.9445 187.303 -1042.07 78 121 117
473.032 259.955 -1143.15 29 41 26
51.6704 518.272 -1045.41 70 112 113
66.9046 519.761 -1050.02 68 107 103
665.499 428.022 -1207.2 105 142 136
78.3119 -53.7131 -1052.52 103 147 142
85.3461 521.062 -1054.4 69 113 110
395.554 69.1599 -1135.21 107 146 137
411.896 219.42 -1139.82 82 125 115
441.91 382.872 -1134.48 19 27 15
126.318 83.7526 -1062.62 108 140 137
381.37 69.0909 -1132.19 108 145 137
590.689 516.465 -1188.42 80 104 95
155.324 338.108 -1074.57 63 101 94
125.446 519.451 -1064 71 101 101
112.559 398.215 -1060.84 75 111 104
412.031 487.815 -1139.14 33 37 25
832.94 158.913 -1250.73 120 162 160
85.2302 158.961 -1054.19 84 124 120
710.009 263.346 -1217.68 114 147 144
982.26 278.156 -1290.77 113 151 149
143.434 487.566 -1070.55 67 108 103
681.883 219.138 -1210.69 111 145 137
157.739 518.785 -1073.1 67 105 106
195.089 394.615 -1083.44 62 94 85
185.306 517.894 -1082.28 69 110 109
231.488 518.489 -1094.7 68 83 71
485.296 354.418 -1141.96 17 25 12
488.069 367.504 -1157.34 78 116 107
261.697 517.346 -1101.03 71 108 98
486.349 368.819 -1161.47 85 126 115
949.474 -10.1697 -1278.47 112 162 159
264.542 -22.4553 -1099.62 120 154 147
277.42 518.293 -1106.52 71 101 90
379.202 220.025 -1124.89 59 89 76
681.912 518.898 -1213.53 102 142 137
157.136 233.803 -1072.51 76 115 106
591.408 -52.0798 -1185.18 119 154 147
415.871 518.665 -1144.46 49 56 49
455.704 518.611 -1155.12 28 35 23
770.954 367.441 -1235.6 109 145 141
472.02 518.417 -1156.93 25 32 22
506.009 335.347 -1162.05 72 103 88
1223.53 549.721 -1652.67 120 157 154
802.535 144.056 -1244.84 116 157 153
1157.06 125.264 -1600.66 121 169 167
768.317 142.088 -1233.49 114 154 154
410.354 261.043 -1119.73 19 30 14
516.047 518.556 -1170.37 31 38 24
1211.32 633.47 -1665.48 116 153 154
1151.08 583.063 -1640.85 120 156 154
134.143 417.679 -1067.66 66 109 105
816.115 113.581 -1247.26 116 156 154
621.198 504.184 -1194.03 98 147 145
429.42 320.984 -1146.31 77 124 115
138.297 37.5844 -1067.54 111 152 149
708.85 337.441 -1218.19 108 143 138
1179.01 -203.347 -1647.69 134 171 174
921.079 503.372 -1274 119 150 148
801.785 278.706 -1245 116 161 159
651.221 -81.2514 -1201.57 104 138 135
876.631 279.775 -1264.07 115 157 155
515.353 397.836 -1147.57 31 35 19
425.388 114.464 -1143.03 105 147 140
576.748 518.232 -1185.45 57 64 46
711.028 491.903 -1218.06 105 139 141
204.457 20.5234 -1085.21 113 152 145
1209.66 454.15 -1632.39 115 156 154
424.08 245.205 -1143.03 85 129 117
831.279 199.853 -1251.87 119 161 156
125.48 352.626 -1064.08 62 102 96
712.334 488.944 -1221.08 107 141 143
581.146 352.724 -1177.15 53 64 48
654.232 516.562 -1204.92 108 145 143
291.485 367.137 -1108.73 62 98 87
395.952 144.374 -1135.3 97 139 132
1170.05 -84.7479 -1632.99 127 170 168
664.956 518.969 -1208.88 105 139 139
708.896 519.066 -1218.82 111 142 146
485.84 441.013 -1161.14 94 129 121
195.444 384.051 -1083.01 60 96 88
906.548 217.846 -1270.98 118 153 150
201.317 382.39 -1086.9 65 103 95
756.913 518.034 -1228.34 106 148 149
84.0552 394.027 -1054.62 53 104 101
455.992 408.801 -1142.83 32 38 16
51.229 -65.9029 -1043.71 112 156 148
801.811 443.315 -1243.64 106 153 153
256.937 223.476 -1097.92 85 122 116
459.315 384.062 -1153.07 77 121 115
41.9341 -67.1798 -1042.72 120 155 147
817.489 518.48 -1246.35 104 147 149
262.152 218.05 -1101 84 120 111
505.329 63.7421 -1157.53 46 57 42
591.723 412.268 -1182.43 71 93 81
200.658 84.6894 -1081.41 113 143 135
1210.31 264.845 -1631.36 117 163 159
741.315 458.04 -1227.61 105 147 146
96.4963 -37.1773 -1055.45 107 151 145
861.243 278.542 -1258.36 112 154 152
846.922 517.698 -1253.03 120 151 149
81.2332 458.21 -1053.39 70 109 106
261.017 443.143 -1101.93 71 102 90
719.088 147.262 -1218.88 107 150 144
757.833 37.9971 -1229.14 109 153 152
290.253 442.697 -1109.06 68 101 88
876.63 201.019 -1265.66 128 170 164
935.701 -67.2775 -1277.08 110 160 156
966.449 518.716 -1284.54 119 150 148
82.0908 38.5295 -1049.67 104 147 144
416.654 259.075 -1144.23 78 126 118
410.865 69.4394 -1137.36 109 147 139
1170.83 261.916 -1624.92 118 165 162
1195.69 379.256 -1637.1 115 168 165
980.888 518.344 -1288.36 119 150 148
565.897 94.1214 -1171.97 49 59 38
965.805 143.299 -1285.16 115 156 151
637.287 308.865 -1199.81 107 143 134
1225.2 647.487 -1664.68 116 153 154
171.599 38.4169 -1074.26 114 152 144
500.39 142.836 -1162.69 110 152 140
637.316 82.9404 -1197.37 114 151 143
81.071 23.0358 -1050.99 106 154 153
606.334 503.431 -1191.82 96 143 141
270.547 76.4019 -1098.99 109 144 134
389.698 261.947 -1118.55 35 45 21
845.8 294.129 -1255.02 115 154 149
399.781 50.1727 -1114.03 38 42 28
845.505 442.657 -1253.5 112 151 149
561.611 -36.6837 -1176.88 119 154 147
621.349 127.688 -1196.71 115 150 141
125.759 367.221 -1065.44 65 103 94
996.133 336.665 -1294.98 113 152 149
561.308 308.486 -1175.86 39 49 30
456.986 323.156 -1133.2 22 31 16
40.7919 398.377 -1041.03 68 105 99
290.685 219.149 -1108.25 82 120 111
802.007 -66.777 -1240.54 107 155 150
50.7416 398.751 -1045.84 68 108 104
774.363 83.5946 -1235.49 117 157 153
336.49 219.373 -1117.29 79 123 113
290.301 248.495 -1109.2 76 117 109
590.02 503.955 -1187.56 57 72 62
442.742 -21.2656 -1146.04 117 154 146
66.5355 415.295 -1047.52 67 107 104
440.094 144.385 -1147.77 104 147 136
111.774 113.91 -1060.8 98 137 134
126.476 114.161 -1064.24 103 138 133
641.45 279.141 -1181.28 25 33 18
141.93 413.468 -1070.17 67 103 97
1144.34 172.393 -1599.06 119 165 159
892.474 -67.0801 -1266.17 110 160 156
999.91 277.843 -1294.82 114 152 149
966.925 338.646 -1285.79 113 155 151
905.688 -66.0836 -1268.06 111 161 158
386.008 322.205 -1135.05 76 117 108
1212.28 618.613 -1662.43 116 153 154
710.397 501.27 -1217.55 105 139 141
515.338 457.842 -1150.12 20 28 14
741.649 502.95 -1227.89 102 147 143
231.234 -51.829 -1093.27 114 137 125
410.928 292.797 -1121.16 25 35 17
892.552 24.4522 -1266.88 117 159 153
338.579 361.913 -1112.56 42 54 34
757.295 502.418 -1230.47 105 147 148
382.066 -36.7737 -1131.73 118 153 141
785.999 503.084 -1239.79 109 148 148
846.462 502.474 -1255.18 119 150 148
861.243 502.668 -1257.72 119 150 148
186.489 -82.0869 -1077.92 110 154 145
877.003 500.25 -1262.35 119 151 149
350.432 443.24 -1127.42 68 102 90
549.134 188.043 -1156.23 26 35 21
79.0685 294.187 -1051.89 65 109 103
921.59 458.836 -1275.3 115 149 141
785.621 8.00146 -1237.75 111 153 148
665.879 83.1203 -1207.4 116 151 143
933.577 504.355 -1278.17 119 151 149
534.431 159.364 -1153.84 43 55 34
1197.4 632.564 -1662.58 116 153 154
52.2348 458.545 -1045.08 72 107 106
1222.02 632.76 -1668.14 116 153 154
1160.54 400.611 -1645.54 113 160 163
742.094 203.046 -1228.94 115 152 147
637.166 352.561 -1198.91 104 140 131
755.303 158.638 -1231.8 117 154 151
39.7619 503.028 -1041.77 75 110 99
697.52 8.10087 -1214.01 106 141 138
66.9623 503.656 -1050.44 67 107 104
775.047 39.0769 -1236.24 114 162 159
186.401 503.616 -1082.23 67 110 108
725.559 98.8241 -1223.5 113 150 146
246.274 503.465 -1096.83 74 98 96
561.1 202.803 -1178.63 109 147 135
396.86 273.11 -1131.94 189 205 160
253.105 501.089 -1102.86 67 108 97
139.368 144.815 -1067.44 96 132 127
304.519 502.851 -1111.55 75 102 96
66.5811 473.207 -1051.32 66 108 105
535.07 414.857 -1173.59 106 140 131
159.134 25.7717 -1071.07 108 159 157
311.895 503.401 -1115.15 73 109 96
321.688 504 -1118.85 68 102 93
171.477 445.342 -1079.51 66 103 97
1011.94 395.229 -1296.31 112 148 140
607.85 -6.98869 -1190.99 118 151 141
350.375 503.592 -1125.59 71 99 92
382.213 504.651 -1132.57 56 63 58
535.402 203.882 -1152.38 47 55 36
937.319 217.275 -1278.62 116 155 154
830.982 305.696 -1251.4 113 152 147
186.495 38.4634 -1079.06 117 150 142
846.085 308.541 -1255.18 113 154 150
336.078 382.466 -1122.53 63 101 91
409.211 503.533 -1141.04 31 36 22
1203.75 23.8141 -1621.83 119 164 162
890.19 248.901 -1266.44 116 154 152
937.244 412.291 -1277.87 112 151 146
426.514 504.138 -1147.39 42 45 29
455.46 503.586 -1153.53 26 33 20
306.207 83.5057 -1111.38 105 142 133
171.61 -81.9103 -1073.85 113 154 146
545.53 413.692 -1176.53 104 141 131
471.204 -37.2752 -1152.68 119 153 145
486.393 51.9549 -1160.73 117 154 147
231.337 -67.6504 -1090.94 114 141 129
904.684 397.935 -1267.57 113 149 143
325.29 52.4851 -1115.23 112 148 139
665.593 398.891 -1207.51 106 141 135
381.007 293.826 -1122.2 59 96 86
1156.47 620.721 -1651.61 116 153 154
726.651 -80.3286 -1221 102 146 141
579.163 457.539 -1161.77 34 39 24
1182.3 619.89 -1656.46 116 153 154
981.043 54.4437 -1288.14 113 161 162
97.6066 173.583 -1055.87 86 124 119
821.031 187.86 -1250.66 134 176 170
1161.18 425.014 -1641.49 114 165 163
757.301 487.266 -1230.17 105 147 148
939.474 235.498 -1278.04 127 168 161
936.314 443.227 -1275.04 112 148 145
411.669 233.912 -1140.5 78 124 115
949.583 484.962 -1278.65 119 153 150
290.441 458.51 -1112.36 68 105 95
1222.39 -186.867 -1650.64 134 171 174
589.812 262.84 -1187.29 104 143 134
1012.87 -20.3489 -1296.02 108 158 154
766.353 113.691 -1233.59 112 150 145
411.034 272.691 -1134.65 193 210 166
966.644 232.546 -1286.7 113 154 149
966.1 458.834 -1285.98 114 148 141
757.345 443.89 -1229.9 107 149 146
78.8682 488.571 -1053.16 57 113 110
312.239 185.026 -1116.45 89 132 123
714.404 82.1652 -1219.92 112 153 147
1183.51 -85.7626 -1639.36 127 171 169
666.355 7.97781 -1207.17 111 143 138
156.169 187.616 -1071.9 87 126 121
922.477 353.126 -1275.28 114 154 150
659.19 10.0001 -1203.92 108 141 137
386.193 244.027 -1113.22 24 32 17
801.67 8.36581 -1241.25 108 152 150
137.068 457.976 -1068.09 61 102 98
111.657 488.896 -1062.34 77 113 110
79.5201 233.322 -1052.46 72 113 108
85.8107 242.052 -1054.76 77 113 107
367.932 242.262 -1104.21 30 41 26
156.023 488.997 -1074.3 68 106 106
172.204 489.102 -1078.47 67 105 102
500.774 69.6773 -1162.77 118 154 146
306.395 -21.916 -1112.11 118 152 143
600.013 -5.8357 -1188.62 113 148 139
742.281 414.542 -1226.51 107 145 142
186.541 488.947 -1082.28 67 110 108
950.729 173.637 -1283.17 112 155 149
1181.36 303.645 -1619.8 118 165 163
202.401 488.748 -1085.9 70 111 115
530.917 -21.9936 -1171.53 121 157 147
425.295 292.941 -1126.35 20 30 15
436.545 54.2801 -1143.61 111 145 137
878.985 188.318 -1265.98 123 163 159
293.837 351.291 -1098.89 42 47 24
216.945 488.888 -1090.01 65 82 69
229.527 488.745 -1097.02 68 83 69
244.236 493.636 -1098.63 71 97 95
1194.32 -38.9792 -1642.26 125 164 155
1014.35 -53.4348 -1295.18 108 158 154
566.316 36.1205 -1172.03 88 99 76
276.685 382.763 -1107.88 65 102 93
246.558 486.402 -1100.86 74 99 94
516.784 158.77 -1167.76 111 151 139
260.351 488.76 -1102.55 70 108 98
459.781 337.523 -1154.68 79 123 113
217.132 294.326 -1090.1 69 104 96
291.225 488.44 -1110.46 69 103 97
726.004 457.793 -1225.29 103 144 140
386.854 275.262 -1112.18 22 31 14
185.314 203.058 -1079.87 84 120 111
741.768 473.859 -1227.89 102 146 145
537.263 170.378 -1174.93 109 149 136
171.33 309.347 -1077.85 66 106 99
1193.11 -154.944 -1643.14 134 171 174
301.699 488.89 -1112.44 72 100 97
487.061 333.768 -1162.7 89 134 125
309.354 489.191 -1115.18 76 106 92
409.141 203.843 -1140.9 84 127 117
411.187 263.503 -1140.59 75 115 104
336.253 487.122 -1122.05 70 100 95
1181.1 154.713 -1601.79 124 170 164
110.34 187.841 -1059.23 83 124 121
666.502 98.0914 -1206.27 115 151 143
350.479 488.985 -1125.55 71 100 92
1198.37 575.267 -1657.66 118 159 155
1189.39 383.271 -1645.68 121 163 165
157.536 -67.1367 -1071.07 113 154 147
51.2692 414.397 -1044.51 65 110 107
1205.69 81.197 -1628.22 126 169 165
406.699 484.053 -1146 95 127 118
560.837 -51.8019 -1176.84 120 154 147
942.699 -37.784 -1281.58 137 173 169
215.208 202.56 -1087.25 87 121 111
471.187 486.814 -1152.14 27 34 23
96.8698 -52.3152 -1057.07 106 150 144
773.152 -21.6997 -1235.61 108 153 146
765.2 -21.6551 -1233.64 98 150 141
757.523 458.547 -1230.18 106 148 147
637.219 337.83 -1197.89 105 143 133
532.852 491.087 -1163.23 50 61 51
566.557 488.363 -1180.61 109 141 142
582.326 490.176 -1179.6 76 94 87
892.134 230.26 -1266.94 114 154 149
352.297 -66.4956 -1123.8 114 152 147
366.26 -67.5431 -1127.02 117 153 143
876.621 250.251 -1265.42 114 153 149
250.671 413.874 -1099.84 70 104 93
593.156 488.185 -1184.02 66 93 86
128.01 308.288 -1063.6 77 110 99
261.413 413.467 -1101.37 66 104 94
892.754 38.6493 -1267.21 118 161 154
565.812 413.933 -1180.88 108 144 134
605.529 -21.4719 -1190.92 116 149 140
500.619 -7.48048 -1161.86 122 157 147
637.041 489.214 -1197.3 98 144 141
427.311 169.552 -1140.84 87 126 117
650.778 489.484 -1201.18 108 141 140
655.727 486.342 -1204.34 111 144 147
947.238 560.227 -1278.27 119 150 148
609.259 7.92028 -1190.79 117 150 141
217.175 352.413 -1089.14 64 103 95
637.377 7.71756 -1198.61 112 144 139
217.597 -21.0673 -1087.5 110 152 142
170.853 413.537 -1077.53 64 99 91
79.1074 -33.7878 -1052.78 104 148 142
211.876 -21.0744 -1083.31 109 151 140
846.388 128.294 -1255.32 119 159 153
697.358 488.272 -1216.29 106 142 142
593.112 428.612 -1183.73 69 92 79
580.616 382.5 -1184.79 104 147 142
514.306 472.188 -1150.92 24 28 14
1194.01 293.122 -1621.94 117 166 165
725.906 489.77 -1223.27 106 143 140
96.5684 68.9057 -1056.54 105 144 140
681.354 143.845 -1210.06 114 150 142
505.008 189.09 -1145.01 25 38 20
650.498 473.908 -1202.39 104 139 136
328.209 183.838 -1096.13 26 35 18
594.805 309.779 -1170.13 28 35 19
140.554 467.667 -1068.85 60 103 98
548.363 -34.6257 -1175.19 124 158 147
304.098 323.689 -1111.03 61 97 86
800.578 488.948 -1245.8 114 145 149
336.164 413.903 -1122.63 64 101 89
861.813 488.28 -1258.05 120 151 149
965.978 487.731 -1284.96 119 150 148
423.786 446.24 -1142.15 30 35 15
456.958 -81.7349 -1150.41 116 152 144
568.031 473.825 -1159.83 36 40 33
1003.25 437.718 -1294.8 107 143 139
324.422 24.8501 -1115.46 115 152 146
51.8655 7.8609 -1044.42 110 152 147
680.862 157.53 -1210.7 115 150 138
499.924 384.523 -1140.28 28 33 17
1181.64 604.793 -1654.22 116 153 154
817.047 203.673 -1245.89 115 157 155
173.24 458.812 -1077.89 67 105 101
1191.04 -233.365 -1661.83 134 171 174
307.482 127.545 -1110.49 100 136 125
906.453 323.623 -1269.13 113 152 150
769.644 250.228 -1233.32 116 153 149
197.647 188.113 -1081.27 92 124 118
1226.86 605.262 -1668.79 116 153 154
52.1521 54.1912 -1044.72 104 144 141
156.04 457.74 -1074.3 64 107 100
561.107 188.047 -1180.2 111 148 136
365.306 487.534 -1127.41 73 101 100
201.171 -67.3824 -1081.32 116 154 144
1222.39 -116.619 -1650.64 134 171 174
494.286 318.243 -1163.73 86 130 120
598.759 309.061 -1188.76 98 138 131
1156.19 309.194 -1637.39 119 167 162
440.605 98.8103 -1146.17 109 148 140
741.994 24.1557 -1227.33 109 153 150
232.619 353.117 -1095.22 69 107 99
697.503 84.5126 -1214.78 114 148 143
301.264 382.51 -1113.37 65 100 90
605.161 262.648 -1192.99 109 145 135
759.032 231.463 -1235.07 111 153 150
1179.56 -11.0134 -1622.6 127 161 155
308.974 443.451 -1116.12 66 100 86
309.707 382.57 -1115.36 65 102 93
1182.78 590.378 -1652.45 118 155 155
964.446 -6.86919 -1283.11 111 160 157
697.617 442.666 -1216.17 109 146 142
951.451 -5.99191 -1280.65 111 160 156
549.565 495.714 -1164.21 34 36 25
802.181 173.872 -1243.8 120 158 155
1160.82 500.422 -1643.98 112 154 147
210.353 -68.9301 -1083.26 108 152 139
560.152 472.799 -1180.25 105 141 141
741.22 54.2142 -1224.11 109 159 160
216.078 428.649 -1091.3 72 107 100
847.706 188.209 -1259.02 117 159 154
312.206 215.345 -1093.69 18 28 12
381.619 413.464 -1131.52 62 95 83
217.383 -67.7616 -1087.09 111 153 143
367.946 336.755 -1127.14 60 98 87
637.134 473.575 -1199.65 99 140 137
265.301 183.985 -1099.64 90 126 120
519.943 173.91 -1149.71 31 40 24
890.804 -7.23825 -1267.19 110 159 156
276.577 188.033 -1101.49 87 128 124
905.758 -6.39454 -1269.7 111 161 157
199.441 222.449 -1083.05 86 118 109
655.745 469.906 -1204.49 105 145 144
590.759 383.688 -1182.9 84 109 94
506.718 348.979 -1164.92 92 132 120
771.174 472.654 -1232.39 106 149 151
144.792 218.215 -1070.38 78 116 111
215.623 382.556 -1090.6 65 102 95
920.318 442.773 -1269.69 112 148 146
904.888 472.504 -1267.7 115 149 146
65.9243 23.7359 -1049.18 101 151 151
709.078 462.887 -1217.72 103 143 140
922.644 -37.8863 -1274.97 109 159 155
711.831 456.756 -1221.14 107 144 142
418.007 229.541 -1129.01 37 48 26
98.8588 53.6306 -1056.23 102 147 143
686.744 308.925 -1198.69 62 68 49
921.855 473.295 -1273.86 114 148 145
395.788 219.435 -1135.67 82 128 119
937.573 473.227 -1277.72 114 148 145
1209.37 594.533 -1674.27 119 156 156
369.586 412.637 -1130.65 67 102 92
697.454 53.7026 -1213.78 112 159 158
50.4333 473.702 -1045.74 72 111 108
82.3425 473.138 -1052.87 65 108 108
82.7257 489.108 -1054.94 61 103 105
124.42 473.662 -1067.32 66 99 98
155.802 474.523 -1074.5 67 106 104
591.024 203.204 -1186.94 104 139 129
906.14 277.997 -1270.12 113 154 152
681.226 294.61 -1211.39 111 147 139
171.974 474.497 -1078.62 68 106 101
697.386 383.878 -1214.41 110 143 136
1011.2 174.235 -1297.52 110 152 147
565.381 265.922 -1164.14 30 36 20
697.172 294.63 -1216.15 107 141 134
263.002 349.838 -1097.66 70 110 98
186.48 474.354 -1082.14 67 107 104
231.183 428.205 -1095.64 79 113 102
680.829 277.779 -1211.57 110 147 141
891.963 129.403 -1266 121 160 154
994.624 7.33694 -1293.4 108 157 153
610.822 -80.963 -1190.66 118 149 139
386.711 472.24 -1135.95 80 124 124
801.967 323.861 -1242.52 112 152 148
411.399 473.522 -1136.11 26 29 15
648.991 294.527 -1201.93 108 144 133
611.661 -65.6632 -1190.58 120 152 141
80.9717 248.695 -1051.98 73 110 104
66.6856 144.312 -1046.47 90 130 128
456.321 472.992 -1149.04 26 32 19
712.812 -22.2976 -1219.12 124 170 166
471.648 473.497 -1150.21 26 34 23
393.988 473.363 -1124.53 49 45 32
681.36 99.3832 -1209.67 113 150 142
485.091 159.515 -1142.02 99 116 96
594.022 473.366 -1184.2 71 99 92
949.36 11.4164 -1278.81 113 160 158
681.333 473.773 -1211.83 101 142 137
681.408 429.431 -1210.16 107 145 140
1177.55 426.736 -1634.12 113 165 164
155.977 384.419 -1073.82 64 101 92
815.785 473.242 -1247.87 112 149 147
696.979 277.902 -1215.02 110 147 144
861.404 473.558 -1257.84 115 148 145
846.543 263.769 -1256.81 114 155 151
171.322 23.7351 -1074.55 111 156 153
561.01 113.041 -1180.58 116 151 140
876.991 473.603 -1261.84 115 148 145
891.131 472.938 -1266.34 114 148 145
637.632 158.676 -1198.48 102 133 121
579.378 264.128 -1162.4 45 50 29
712.879 70.0318 -1220.53 110 151 146
157.01 113.253 -1070.73 101 137 131
427.971 294.297 -1143.87 83 124 114
828.189 156.215 -1248.9 120 160 159
710.502 441.862 -1217.34 106 148 145
1176.56 579.842 -1643.02 121 157 154
816.768 68.5463 -1245.09 114 155 152
877.183 174.721 -1265.15 110 151 147
965.728 352.841 -1285.3 113 154 149
366.645 84.3398 -1125.53 105 146 139
483.148 25.1132 -1158.31 116 151 140
520.446 442.628 -1170.35 104 141 134
1003.14 574.534 -1294.76 119 150 148
186.334 23.0624 -1079.51 111 156 153
480.823 401.471 -1144.81 16 21 11
262.439 112.769 -1100.79 104 140 132
1205 485.09 -1647.4 116 164 163
979.948 143.75 -1286.11 114 153 150
995.221 472.075 -1292.14 113 148 145
1168.04 572.849 -1634.01 123 159 155
637.388 -6.15216 -1197.13 113 141 137
1226.78 518.789 -1662.94 114 155 149
516.667 219.241 -1167.53 104 146 134
1209.97 575.694 -1664.91 116 159 154
1236.1 580.936 -1675.02 123 159 155
1166.37 559.716 -1630.8 116 157 154
96.3655 144.451 -1055.75 91 128 126
402.083 138.872 -1119.92 18 30 15
1180.65 367.055 -1648.43 115 165 161
1225.09 572.044 -1664.48 113 159 154
95.8836 384.002 -1057.11 71 108 103
547.623 8.51204 -1175.79 121 155 145
608.126 264.488 -1170.56 27 31 16
725.593 128.355 -1222.22 113 148 139
307.421 69.8563 -1110.93 108 144 132
95.7292 457.465 -1057.3 68 107 103
362.328 369.483 -1128.16 62 101 93
546.638 188.037 -1176.81 110 149 137
110.872 457.92 -1063.02 73 110 107
186.578 457.672 -1082.02 69 104 98
559.836 190.197 -1162.54 26 36 21
488.808 308.623 -1148.09 18 29 13
322.44 457.329 -1117.42 70 103 92
952.598 368.82 -1282.07 119 157 152
350.508 457.57 -1126.54 70 105 94
516.913 -21.547 -1166.52 120 155 148
561.877 354.474 -1166.08 20 30 15
364.28 458.679 -1128.55 71 104 93
1167.5 142.215 -1597.42 124 169 165
381.42 458.273 -1124.78 54 76 60
681.002 443.795 -1210.43 106 147 143
384.598 457.542 -1133.09 80 117 108
411.719 458.249 -1135.61 39 47 29
126.274 293.592 -1065.07 68 106 101
471.093 458.699 -1147.74 26 33 20
395.73 263.155 -1136.12 75 115 104
438.665 351.335 -1127.87 17 25 11
277.415 38.0333 -1101.55 110 156 154
126.657 248.874 -1063.98 75 111 104
831.534 173.125 -1252.49 114 157 153
487.576 127.434 -1160.43 112 151 141
1183.44 383.163 -1662.64 117 166 166
505.384 458.537 -1166.41 104 139 129
318.947 -50.3922 -1112.38 116 150 143
1021.82 82.3566 -1299.81 116 158 152
426.909 190.121 -1143.35 94 135 124
66.5613 219.049 -1048.87 73 116 113
997.263 186.91 -1292.97 116 155 150
277.547 203.984 -1102.28 85 124 117
520.432 458.843 -1171.75 103 141 133
656.589 -7.59022 -1205.73 127 166 161
546.475 455.368 -1176.94 102 139 134
566.134 458.066 -1183.32 110 144 141
937.176 158.351 -1277.15 119 158 155
816.53 323.279 -1246.42 116 153 149
592.667 458.367 -1183.66 65 85 69
950.629 379.786 -1277.9 109 152 153
366.135 7.37766 -1125.27 116 152 143
1010.65 573.912 -1297.54 119 150 148
637.284 459.26 -1200.36 100 138 133
365.088 474.074 -1127.58 75 106 101
637.08 444.107 -1198.52 100 142 140
861.52 427.438 -1257.38 110 150 144
757.282 173.527 -1231.29 116 153 149
489.777 6.35112 -1160.76 135 171 163
696.76 263.36 -1214.2 111 144 138
456.373 278.016 -1135.04 49 61 41
305.883 169.489 -1091.75 34 42 23
1175.48 291.696 -1618.46 118 165 164
51.0073 247.425 -1044.65 69 114 111
715.829 413.124 -1223.52 114 154 150
39.5971 248.28 -1042.15 69 112 109
769.843 429.067 -1231.72 112 152 151
1206.63 276.63 -1622.6 124 168 163
1012.43 324.071 -1295.58 109 147 145
1223.54 489.696 -1657.16 112 166 163
980.77 129.073 -1290.03 119 156 152
358.243 158.853 -1110.71 86 102 81
666.314 113.934 -1207.05 116 152 140
654.827 459.031 -1204.85 106 140 136
769.7 459.586 -1233.24 108 150 150
580.406 281.432 -1171.19 56 65 36
125.806 442.961 -1067.17 62 103 97
774.516 456.092 -1236.49 110 151 151
785.279 458.014 -1237.89 111 151 151
171.292 427.895 -1079.35 63 102 95
815.912 457.792 -1247.03 114 150 149
1196.57 -25.0526 -1637.17 124 160 151
531.656 277.204 -1167.16 70 80 57
201.953 456.961 -1085.91 64 101 95
515.098 442.637 -1148.85 20 26 12
935.769 459.411 -1277.91 114 148 140
862.323 413.379 -1259.29 112 152 148
305.09 144.084 -1111.75 94 132 122
231.662 398.834 -1093.37 67 104 94
655.084 317.547 -1204.85 109 141 130
471.97 337.555 -1138.05 18 26 12
757.488 128.529 -1230.18 112 148 142
602.107 294.325 -1185.76 95 128 118
1213.61 559.897 -1652.95 119 157 155
386.626 444.352 -1136.32 84 116 107
576.541 276.367 -1178.81 107 121 97
40.468 458.936 -1041.23 74 111 106
1211.95 529.581 -1651.78 117 156 150
312.744 244.356 -1098.02 16 26 13
891.285 99.566 -1267.87 115 158 157
432.503 459.001 -1147.14 87 121 114
170.734 52.6716 -1075.07 112 148 141
1175.41 242.495 -1605.79 123 166 163
321.019 97.9633 -1116.51 105 141 133
785.809 428.052 -1239.16 110 151 148
142.885 398.304 -1070.54 66 103 94
587.182 427.741 -1172.2 70 74 49
1179.97 -5.43604 -1626.85 124 164 154
830.923 454.427 -1250.81 114 149 144
127.164 -21.8747 -1062.47 110 152 143
256.374 575.549 -1098.24 76 103 94
621.481 67.6815 -1195.5 116 149 139
1167.62 545.201 -1633.2 116 160 155
67.098 443.036 -1050.4 67 105 103
921.927 278.042 -1273.91 113 154 152
456.849 -21.2714 -1149.51 115 152 143
937.312 352.805 -1277.04 114 154 150
95.3632 443.006 -1057.77 63 106 103
379.568 129.203 -1119.25 58 86 72
502.34 -66.6062 -1161.88 123 157 149
170.916 201.998 -1076.75 84 120 113
1193.27 229.002 -1620.58 130 163 161
845.319 412.894 -1252.98 113 153 148
201.101 412.403 -1086.98 67 103 92
292.063 188.285 -1106.35 87 128 123
200.887 443.923 -1087.69 69 104 96
817.246 68.3924 -1249.29 128 171 171
276.135 442.742 -1105.38 71 102 86
613.186 248.835 -1176.63 26 33 17
875.149 203.383 -1260.33 113 153 150
605.11 248.487 -1192.62 108 144 134
428.277 103.306 -1144.94 104 146 140
66.6058 38.3491 -1048.54 102 146 143
937.463 303.599 -1280.82 121 158 156
337.104 443.392 -1122.45 67 102 89
436.465 442.504 -1146.33 34 49 34
594.657 338.482 -1189.73 102 136 126
455.259 446.354 -1150.15 54 73 62
383.271 83.5484 -1130.79 107 144 135
381.264 353.028 -1122.81 42 70 57
500.368 248.071 -1164.12 97 140 128
547.673 426.578 -1177.05 107 151 147
936.753 381.486 -1277.94 105 148 149
396.224 234.282 -1138.17 81 124 114
605.211 338.005 -1192.05 105 142 132
598.596 471.916 -1190.43 91 127 122
488.501 22.8328 -1160.31 120 156 147
501.097 -36.1621 -1162.41 122 156 148
625.641 187.935 -1188.17 28 35 20
594.722 348.027 -1189.81 106 145 134
352.32 233.837 -1122.06 76 123 113
565.67 442.347 -1182.19 106 142 136
259.615 295.786 -1098.24 72 110 102
51.5953 23.6365 -1043.12 107 154 152
581.371 443.274 -1183.64 109 145 139
535.137 383.122 -1173.12 101 145 140
593.432 443.555 -1183.2 67 89 82
411.976 144.369 -1139.64 98 142 133
650.861 444.11 -1202.07 100 143 140
83.4329 320.743 -1054.94 69 108 104
906.214 188.234 -1273.72 118 158 154
1158.36 454.284 -1626.4 115 157 156
991.087 130.707 -1292.62 118 155 153
1195.92 -54.57 -1631.74 126 163 156
155.497 37.9136 -1072.12 109 148 141
395.721 173.486 -1135.87 92 134 125
834.645 444.751 -1248.37 115 163 161
861.344 443.835 -1256.85 112 150 147
51.0898 428.752 -1042.82 69 109 103
594.868 233.057 -1189.68 109 149 141
1148.45 468.234 -1629.05 114 158 152
95.8571 428.046 -1057.31 67 105 100
50.94 294.146 -1043.96 70 112 110
312.602 85.7367 -1114.37 108 144 134
565.98 430.141 -1161.1 23 31 15
535.577 428.166 -1173.35 106 146 141
1001.67 518.91 -1295.15 119 150 148
697.166 128.48 -1215.66 112 147 139
581.095 428.871 -1183.19 107 149 145
621.122 428.183 -1196.4 103 140 132
964.813 -65.0584 -1282.63 111 160 157
955.286 304.289 -1278.43 119 163 160
637.127 427.789 -1199.31 103 138 131
650.293 428.457 -1202.9 104 141 135
366.469 -21.7365 -1126.21 117 152 143
112.393 413.54 -1061.04 75 114 110
1213.98 -173.817 -1640.11 134 171 174
710.429 426.278 -1217.65 105 148 145
41.9891 68.6634 -1042.55 100 143 139
504.691 383.789 -1166.22 98 141 136
111.079 173.715 -1061.09 90 126 122
297.305 304.803 -1098.82 16 24 10
725.609 427.581 -1222.03 107 146 144
505.169 412.841 -1165.34 103 136 123
50.8785 68.8011 -1043.59 102 143 140
756.849 428.608 -1227.42 111 146 141
741.877 -21.4278 -1226.71 109 150 140
801.922 427.934 -1243.47 107 150 147
50.9681 -22.5469 -1043.65 111 156 149
215.255 338.389 -1087.74 67 105 99
877.678 427.619 -1262.11 110 150 143
905.753 427.482 -1269.32 110 150 143
246.619 248.46 -1096.02 77 118 111
920.928 427.663 -1272.52 111 150 144
426.389 337.271 -1127.32 14 23 10
951.127 427.924 -1282.17 111 150 144
1220.78 499.622 -1659.01 114 155 147
1160.94 513.55 -1646.77 114 155 149
1213.13 414.556 -1638.58 115 161 155
1175.85 515.212 -1635.24 117 154 150
1161 260.53 -1631.47 122 160 157
877.668 398.376 -1261.98 111 148 142
1212.48 515.23 -1657.45 115 155 149
65.6934 429.455 -1047.37 66 108 103
146.748 308.845 -1069.67 68 109 103
681.168 369.607 -1211.29 106 141 135
488.94 383.823 -1160.58 85 130 126
76.7094 428.001 -1051.96 68 107 102
877.818 413.014 -1262.34 112 152 148
681.19 233.519 -1211.14 106 141 133
126.002 428.282 -1066.58 65 102 95
201.956 337.605 -1081.08 64 103 94
757.262 114.078 -1231.14 114 152 145
395.985 242.388 -1122.94 48 57 36
143.036 428.157 -1070.06 67 106 98
490.353 321.168 -1147.49 18 29 14
381.445 64.5543 -1112.91 63 75 55
980.742 398.112 -1287.95 112 145 140
232.1 338.211 -1092.87 72 109 103
246.393 425.117 -1097.69 73 111 101
697.429 352.88 -1215.29 108 143 137
277.094 427.971 -1106.22 68 102 90
291.271 428.713 -1109.81 66 102 89
321.802 294.357 -1117.93 67 109 99
950.769 68.0272 -1281.9 121 157 152
934.937 289.533 -1277.85 110 150 151
349.216 428.215 -1126.66 66 102 90
937.886 294.641 -1280.6 112 154 148
492.247 219.128 -1143.91 37 47 28
366.842 429.274 -1131.6 69 102 90
501.911 293.747 -1155.2 20 30 15
146.57 -63.6163 -1069.31 110 155 147
773.87 277.664 -1236.3 116 160 159
664.654 372.623 -1201.21 102 135 126
230.663 -21.4507 -1092.84 115 140 128
67.3378 -65.0963 -1045.64 111 152 143
384.17 -20.539 -1131.1 118 154 140
415.948 339.5 -1143.66 77 122 113
365.864 309.485 -1127.93 65 111 104
381.494 428.207 -1131.52 59 90 77
397.051 428.7 -1132.45 20 29 18
576.145 158.942 -1182.81 113 150 139
661.938 444.279 -1202.95 99 143 139
550.475 249.081 -1155.18 23 33 15
560.562 157.615 -1178.57 114 151 138
454.442 427.324 -1147.71 25 35 22
560.491 262.871 -1179.64 99 142 132
505.117 427.074 -1166.36 102 142 136
966.807 203.227 -1287.39 117 156 153
680.072 308.272 -1188.18 54 59 46
1187.64 512.803 -1642.36 112 153 148
771.426 187.037 -1237.14 120 157 150
715.999 128.396 -1220.32 112 148 140
637.296 53.6219 -1198.04 112 156 154
386.552 369.172 -1136 74 112 103
1199.45 498.781 -1650.19 114 155 148
327.715 199.526 -1094.28 31 41 22
802.092 217.825 -1243.28 116 156 153
936.557 -37.4924 -1276.87 109 159 156
1209.68 499.343 -1655 114 155 147
725.357 113.789 -1222.59 115 151 143
83.6925 415.625 -1054.55 65 115 111
1210.32 -68.6985 -1636.22 123 164 158
95.8517 413.279 -1057.21 67 109 104
127.087 412.737 -1065.75 65 102 99
834.541 381.145 -1250.86 109 154 153
1180.86 409.485 -1637.23 114 159 155
919.598 202.786 -1276.91 116 155 152
232.504 413.425 -1094.77 71 105 95
605.336 352.094 -1191.81 104 140 130
1011.51 37.6726 -1296.97 112 155 150
244.705 414.474 -1097.98 70 107 96
231.975 384.169 -1091.76 73 105 97
277.69 413.788 -1105.19 70 104 90
606.025 308.763 -1192.66 104 145 136
472.394 -20.9212 -1154.11 120 154 145
303.408 413.054 -1112.39 68 105 93
140.131 -68.3521 -1067.83 108 157 153
517.007 7.81301 -1165.93 120 156 149
310.29 414.557 -1115.89 68 103 92
386.051 338.032 -1135.38 74 118 108
562.263 414.338 -1162.78 25 31 14
350.515 413.762 -1125.93 66 101 90
276.35 308.131 -1102.99 66 105 98
681.59 398.994 -1212.65 105 139 133
427.145 413.959 -1147.94 81 118 108
445.24 417.642 -1147.42 49 61 43
125.732 337.96 -1063.98 67 104 95
456.681 416.401 -1146.83 33 44 30
126.42 219.152 -1063.15 80 117 110
474.47 411.702 -1158.03 87 122 112
541.493 37.4043 -1173.14 122 164 158
486.797 411.704 -1161.32 90 127 117
833.233 144.071 -1251.39 117 161 158
484.799 246.314 -1156.01 80 117 102
520.324 412.698 -1169.21 102 138 126
148.167 -57.8884 -1069.39 111 154 146
322.71 -78.6083 -1115.5 111 144 139
580.925 413.584 -1184.31 109 144 136
247.482 23.8551 -1095.01 114 154 151
995.831 113.825 -1295.21 114 161 157
606.133 413.667 -1192.2 102 137 128
621.214 413.355 -1195.81 102 139 131
637.209 413.116 -1199.21 102 141 131
426.473 82.3715 -1142.26 109 149 141
51.313 -37.5327 -1043.22 110 154 147
577.137 7.70623 -1182.48 115 152 143
577.17 428.985 -1163.09 31 39 23
42.5421 -35.5276 -1042.19 120 155 147
1166.33 469.603 -1626.87 111 159 153
259.959 188.939 -1096.61 86 131 124
893.669 413.278 -1265.87 114 153 148
561.202 -66.9398 -1177.38 120 154 147
84.3048 64.9726 -1054.72 101 141 135
665.273 413.36 -1207.63 109 144 138
681.263 414.71 -1209.64 105 143 135
696.642 413.403 -1214 106 143 138
144.253 338.007 -1070.74 66 104 96
711.402 412.086 -1216.54 107 144 140
728.552 413.065 -1221.8 106 143 139
396.926 336.999 -1119.27 28 42 28
769.04 415.961 -1232.1 108 151 147
801.905 413.176 -1243.12 108 149 147
816.947 412.503 -1243.88 110 150 147
830.594 412.297 -1246.83 111 150 146
921.327 413.767 -1276.46 111 152 147
966.26 414.409 -1284.65 110 151 146
835.603 279.043 -1251.01 116 160 159
186.875 52.7189 -1079.29 113 149 141
490.477 233.28 -1161.38 97 140 127
1152.65 483.962 -1633.77 118 163 163
531.211 353.412 -1162.77 26 37 22
785.665 309.171 -1236.89 116 155 150
1180.52 483.552 -1633.73 116 164 163
382.198 -81.8392 -1130.56 118 153 140
1190.76 455.178 -1631.84 115 156 154
250.99 352.175 -1100.11 71 110 102
